# .PCD v0.7 - Point Cloud Data file format
VERSION 0.7
FIELDS x y z
SIZE 4 4 4
TYPE F F F
COUNT 1 1 1
WIDTH 2450
HEIGHT 1
VIEWPOINT 0 0 0 1 0 0 0
POINTS 2450
DATA ascii
-0.71086794 0 4.3710003
-0.69006455 0 4.3710003
-0.66482085 0 4.342
-0.64415544 0 4.342
-0.6194694 0 4.3140001
-0.59893733 0 4.3140001
-0.57478517 0 4.2870002
-0.55438155 0 4.2870002
-0.53061491 0 4.2600002
-0.51033986 0 4.2600002
-0.48695871 0 4.2330003
-0 -0 0
-0 -0 0
-0 -0 0
-0 -0 0
-0 -0 0
-0 -0 0
-0 -0 0
-0 -0 0
-0.13906485 0 1.9260001
-0.12976333 0 1.9240001
-0.12048084 0 1.9220001
-0.1105223 0 1.9080001
-0.10122868 0 1.904
-0.092069946 0 1.9020001
-0.082973897 0 1.9010001
-0.073926255 0 1.9010001
-0.064946868 0 1.9030001
-0.055977818 0 1.9060001
-0.047004819 0 1.9100001
-0.038033444 0 1.9160001
-0.028989868 0 1.9210001
-0.019909028 0 1.927
-0.010776647 0 1.9340001
-0.0015776352 0 1.9410001
0.0076840627 0 1.9470001
0.017046403 0 1.9580001
0.026446123 0 1.9640001
0.035921182 0 1.9710001
0.045439892 0 1.9770001
0.054904733 0 1.9790001
0.064453617 0 1.983
0.074003316 0 1.9860001
0.083749667 0 1.9930001
0.093188398 0 1.9920001
0.10251451 0 1.9890001
0.11169948 0 1.9840001
0.1207758 0 1.978
0.12979501 0 1.9720001
0.13840419 0 1.9610001
0.14773741 0 1.9610001
0.15610945 0 1.9490001
0.16479154 0 1.9420002
0.17358623 0 1.937
0.18233334 0 1.932
0.19113199 0 1.9280001
0.19999646 0 1.9250001
0.20883235 0 1.9220001
0.21741289 0 1.9170001
0.2259458 0 1.9120001
0.23369355 0 1.9010001
0.24261351 0 1.9000001
0.250067 0 1.8880001
0.2583667 0 1.8830001
0.26647684 0 1.8770001
0.27423644 0 1.8690001
0.28176838 0 1.8600001
0.28983966 0 1.8550001
0.29705828 0 1.845
0.30368441 0 1.8320001
0.31103948 0 1.8240001
0.31849363 0 1.817
0.32606122 0 1.8110001
0.33357167 0 1.8050001
0.34007722 0 1.794
0.347644 0 1.789
0.35357052 0 1.7760001
0.36080018 0 1.7700001
0.36797273 0 1.7640001
0.37466142 0 1.756
0.38171026 0 1.7500001
0.38870195 0 1.7440001
0.3956365 0 1.738
0.40135199 0 1.7270001
0.40791139 0 1.72
0.41464606 0 1.7140001
0.42157033 0 1.7090001
0.42819551 0 1.7030001
0.43450746 0 1.6960001
0.44101366 0 1.6900001
0.4474628 0 1.6840001
0.45385483 0 1.6780001
0.45991448 0 1.6710001
0.46590751 0 1.664
0.47211868 0 1.6580001
0.47856221 0 1.6530001
0.48584098 0 1.651
0.49339974 0 1.6500001
0.50155652 0 1.651
0.51033998 0 1.654
0.51915199 0 1.6570001
0.52862865 0 1.6620001
0.53783011 0 1.6660001
0.55198342 0 1.6850001
0.56731462 0 1.7070001
0.57678741 0 1.7110001
0.58287954 0 1.705
0.59758019 0 1.7240001
0.61070478 0 1.738
0.62752408 0 1.7620001
0.63771468 0 1.7670001
0.65746009 0 1.7980001
0.66824007 0 1.8040001
0.6794523 0 1.8110001
0.69111115 0 1.8190001
0.70323074 0 1.8280001
0.71738338 0 1.8420001
0.73009247 0 1.8520001
0.74489152 0 1.8670001
0.75458479 0 1.8690001
0.77655208 0 1.9010001
0.78766596 0 1.9060001
0.81011391 0 1.9380001
0.83117533 0 1.9660001
0.83967727 0 1.9640001
0.86242586 0 1.9950001
0.87760258 0 2.0080001
0.88671768 0 2.0070002
0.91234636 0 2.043
0.92387521 0 2.0470002
0.94000298 0 2.0610001
0.95534241 0 2.0730002
0.97638321 0 2.0970001
0.98965627 0 2.1040001
1.0115484 0 2.1290002
1.0283995 0 2.1430001
1.0594387 0 2.1860001
1.0708218 0 2.1880002
1.0980369 0 2.2220001
1.1185907 0 2.2420001
1.1468904 0 2.2770002
1.1780654 0 2.3170002
1.2173191 0 2.3720002
1.2493269 0 2.4120002
1.2890337 0 2.4660001
1.3324192 0 2.526
1.3667957 0 2.5680001
1.397813 0 2.6030002
1.4248291 0 2.6300001
1.4373463 0 2.6300001
1.4504149 0 2.631
1.4651611 0 2.6350002
1.4687294 0 2.6190002
1.4806287 0 2.618
1.4925184 0 2.6170001
1.5066992 0 2.6200001
1.5162696 0 2.615
1.5252079 0 2.6090002
1.5364465 0 2.6070001
1.5476661 0 2.605
1.5600642 0 2.605
1.5706518 0 2.6020002
1.5818189 0 2.6000001
1.6015512 0 2.6120002
1.6115111 0 2.608
1.6170744 0 2.5970001
1.6275522 0 2.5940001
1.6367372 0 2.5890002
1.652881 0 2.595
1.6523974 0 2.575
1.6646529 0 2.575
1.6743037 0 2.5710001
1.6839161 0 2.5670002
1.6961335 0 2.5670002
1.7123441 0 2.5730002
1.7138656 0 2.5570002
1.7246854 0 2.5550001
1.736166 0 2.5540001
1.750375 0 2.5570002
1.7618557 0 2.5560002
1.7747148 0 2.5570002
0 -0 0
0 -0 0
0 -0 0
0 -0 0
0 -0 0
0 -0 0
0 -0 0
0 -0 0
0 -0 0
0 -0 0
0 -0 0
0 -0 0
0 -0 0
0 -0 0
0 -0 0
0 -0 0
0 -0 0
0 -0 0
0 -0 0
0 -0 0
0 -0 0
0 -0 0
0 -0 0
0 -0 0
0 -0 0
0 -0 0
0 -0 0
0 -0 0
0 -0 0
0 -0 0
0 -0 0
0 -0 0
0 -0 0
0 -0 0
0 -0 0
0 -0 0
0 -0 0
0 -0 0
0 -0 0
0 -0 0
0 -0 0
0 -0 0
0 -0 0
0 -0 0
0 -0 0
0 -0 0
0 -0 0
0 -0 0
0 -0 0
0 -0 0
0 -0 0
0 -0 0
0 -0 0
0 -0 0
0 -0 0
0 -0 0
0 -0 0
0 -0 0
0 -0 0
0 -0 0
0 -0 0
0 -0 0
-0 -0 0
-0 -0 0
-0 -0 0
-0 -0 0
-0 -0 0
-0 -0 0
-0 -0 0
-2.4323413 0 2.4550002
-2.4246011 0 2.4590001
-2.4148602 0 2.4610002
-2.4060767 0 2.4640002
-2.4264169 0 2.4970002
-2.4125986 0 2.4950001
-2.4507589 0 2.5470002
-2.4759774 0 2.5860002
-2.5017774 0 2.6260002
-2.5110817 0 2.6490002
-2.5390306 0 2.6920002
-2.5675085 0 2.7360001
-2.5554206 0 2.7370002
-2.5442517 0 2.7390001
-2.5293677 0 2.7370002
-2.5154214 0 2.7360001
-2.5014853 0 2.7350001
-2.4866483 0 2.733
-2.4718308 0 2.7310002
-2.458833 0 2.7310002
-2.4458349 0 2.7310002
-2.4568892 0 2.7580001
-2.461484 0 2.7780001
-2.4817519 0 2.8160002
-2.5034113 0 2.8560002
-2.4924338 0 2.8590002
-2.5109065 0 2.8960001
-2.4971232 0 2.8960001
-2.4893425 0 2.9030001
-2.5062249 0 2.9390001
-2.5134366 0 2.9640002
-2.5010161 0 2.9660001
-2.5204384 0 3.006
-2.5077991 0 3.0080001
-2.4943116 0 3.0090001
-2.4816391 0 3.0110002
-2.468128 0 3.0120001
-2.457051 0 3.016
-2.4451265 0 3.0190001
-2.4331734 0 3.0220001
-2.4203913 0 3.0240002
-2.4083858 0 3.0270002
-2.400306 0 3.0350001
-2.4007974 0 3.0540001
-2.3917317 0 3.0610001
-2.3794928 0 3.0640001
-2.3672254 0 3.0670002
-2.368737 0 3.0880001
-2.3563268 0 3.0910001
-2.3499486 0 3.1020002
-2.3366907 0 3.1040001
-2.3241615 0 3.1070001
-2.3130906 0 3.1120002
-2.2997563 0 3.1140001
-2.2886043 0 3.1190002
-2.2752175 0 3.1210001
-2.2610879 0 3.1220002
-2.2555823 0 3.1350002
-2.2327993 0 3.1240001
-2.218641 0 3.1250002
-2.2002418 0 3.1200001
-2.1867933 0 3.1220002
-2.1802828 0 3.1340001
-2.1674395 0 3.1370001
-2.1531954 0 3.1380002
-2.1566584 0 3.1650002
-2.151068 0 3.1790001
-2.1312344 0 3.1720002
-2.1401544 0 3.2080002
-2.1341593 0 3.2220001
-2.1319766 0 3.2420001
-2.1243811 0 3.2540002
-2.1114862 0 3.2580001
-2.1082034 0 3.2770002
-2.0957997 0 3.2820001
-2.0808132 0 3.2830002
-2.0677042 0 3.2870002
-2.0714133 0 3.3180001
-2.0580997 0 3.3220003
-2.0429037 0 3.3230002
-2.0514889 0 3.3630002
-2.0385094 0 3.3680003
-2.0356903 0 3.3900001
-2.021939 0 3.3940001
-2.0069675 0 3.3960001
-1.9925631 0 3.3990002
-1.9775491 0 3.4010003
-1.9630922 0 3.404
-1.948035 0 3.4060001
-1.9346604 0 3.4110003
-1.9189886 0 3.4120002
-1.9049801 0 3.4160001
-1.899227 0 3.4350002
-1.8856193 0 3.4400001
-1.8714204 0 3.4440002
-1.8701104 0 3.4720001
-1.8562553 0 3.4770002
-1.8434105 0 3.4840002
-1.8226337 0 3.4760001
-1.8071294 0 3.4780002
-1.7916058 0 3.4800003
-1.7898349 0 3.5090001
-1.774145 0 3.5110002
-1.757935 0 3.5120001
-1.7417159 0 3.5130002
-1.7264692 0 3.5160003
-1.7121664 0 3.5210001
-1.7069649 0 3.5450001
-1.6900927 0 3.5450001
-1.6741647 0 3.5470002
-1.6591519 0 3.5510001
-1.6417887 0 3.5500002
-1.624893 0 3.5500002
-1.6252093 0 3.5880001
-1.6072361 0 3.5860002
-1.5946033 0 3.5960002
-1.5761725 0 3.5930002
-1.5590718 0 3.5930002
-1.5432588 0 3.5960002
-1.5405736 0 3.6300001
-1.5211986 0 3.6250002
-1.5027012 0 3.6220002
-1.4998169 0 3.6570001
-1.4840331 0 3.6610003
-1.4814312 0 3.6980002
-1.4757063 0 3.7280002
-1.4575721 0 3.7270002
-1.4525826 0 3.7600002
-1.4427 0 3.7810001
-1.4409072 0 3.8240001
-1.4308923 0 3.8460002
-1.420668 0 3.8680003
-1.4105967 0 3.8910003
-1.3999488 0 3.9130001
-1.3894444 0 3.9360001
-1.3707113 0 3.9360001
-1.3519783 0 3.9360001
-1.3410361 0 3.9590001
-1.3221935 0 3.9590001
-1.3112522 0 3.9830003
-1.2997577 0 4.006
-1.2883643 0 4.0300002
-1.2691839 0 4.0300002
-1.2577578 0 4.0550003
-1.2384584 0 4.0550003
-1.219159 0 4.0550003
-1.2069609 0 4.079
-1.1805602 0 4.0550003
-1.1681337 0 4.079
-1.14872 0 4.079
-1.1293064 0 4.079
-1.1098928 0 4.079
-1.0904791 0 4.079
-1.0710655 0 4.079
-1.0580975 0 4.1040001
-1.0385648 0 4.1040001
-1.0190322 0 4.1040001
-0.99949956 0 4.1040001
-0.98593652 0 4.1290002
-0.97236961 0 4.1550002
-0.95259422 0 4.1550002
-0.9384315 0 4.1800003
-0.92447031 0 4.2070003
-0.90444744 0 4.2070003
-0.88442457 0 4.2070003
-0.86974388 0 4.2330003
-0.85501647 0 4.2600002
-0.83474135 0 4.2600002
-0.8196283 0 4.2870002
-0.80425835 0 4.3140001
-0.78372627 0 4.3140001
-0.76814759 0 4.342
-0.75247473 0 4.3710003
-0.73167133 0 4.3710003
-0.71086794 0 4.3710003
-0.69006455 0 4.3710003
-0.66926116 0 4.3710003
-0.64415544 0 4.342
-0.6194694 0 4.3140001
-0.59893733 0 4.3140001
-0.5784052 0 4.3140001
-0.55787313 0 4.3140001
-0.53397799 0 4.2870002
-0.51033986 0 4.2600002
-0.49006477 0 4.2600002
-0 -0 0
-0 -0 0
-0 -0 0
-0 -0 0
-0 -0 0
-0 -0 0
-0 -0 0
-0 -0 0
-0.13892044 0 1.9240001
-0.12962843 0 1.9220001
-0.12029279 0 1.9190001
-0.11046437 0 1.9070001
-0.10117551 0 1.9030001
-0.09202154 0 1.9010001
-0.082930252 0 1.9000001
-0.073926255 0 1.9010001
-0.064946868 0 1.9030001
-0.055977818 0 1.9060001
-0.04698021 0 1.909
-0.038013596 0 1.9150001
-0.028974777 0 1.9200001
-0.019909028 0 1.927
-0.010782219 0 1.9350001
-0.001578448 0 1.9420002
0.0076919557 0 1.9490001
0.017011579 0 1.9540001
0.026392261 0 1.96
0.035939407 0 1.9720001
0.045462873 0 1.978
0.054904733 0 1.9790001
0.064453617 0 1.983
0.074226893 0 1.9920001
0.083749667 0 1.9930001
0.093188398 0 1.9920001
0.10251451 0 1.9890001
0.11169948 0 1.9840001
0.12083686 0 1.9790001
0.12986082 0 1.973
0.13847478 0 1.9620001
0.14766207 0 1.96
0.15618955 0 1.95
0.16496125 0 1.9440001
0.17367586 0 1.9380001
0.18242772 0 1.9330001
0.19113199 0 1.9280001
0.19999646 0 1.9250001
0.20894101 0 1.9230001
0.21763971 0 1.9190001
0.22618215 0 1.914
0.23418528 0 1.9050001
0.24286889 0 1.9020001
0.25086167 0 1.8940001
0.2583667 0 1.8830001
0.26633486 0 1.876
0.27438319 0 1.8700001
0.28146538 0 1.858
0.28952715 0 1.853
0.29673627 0 1.8430001
0.30385017 0 1.8330001
0.31103948 0 1.8240001
0.31849363 0 1.817
0.32606122 0 1.8110001
0.33375648 0 1.8060001
0.34026679 0 1.7950001
0.347644 0 1.789
0.35396868 0 1.7780001
0.36120784 0 1.7720001
0.36859852 0 1.7670001
0.37508816 0 1.7580001
0.38214648 0 1.7520001
0.3891477 0 1.7460001
0.39586416 0 1.7390001
0.40111959 0 1.7260001
0.40791139 0 1.72
0.41464606 0 1.7140001
0.42157033 0 1.7090001
0.42819551 0 1.7030001
0.43476364 0 1.697
0.44127464 0 1.6910001
0.44772848 0 1.6850001
0.45385483 0 1.6780001
0.45963922 0 1.6700001
0.46590751 0 1.664
0.47211868 0 1.6580001
0.47885171 0 1.654
0.48584098 0 1.651
0.49339974 0 1.6500001
0.50186032 0 1.6520001
0.51064855 0 1.6550001
0.51977855 0 1.659
0.5289467 0 1.6630001
0.53815293 0 1.6670001
0.5575524 0 1.702
0.56764698 0 1.7080001
0.57712454 0 1.7120001
0.58322144 0 1.7060001
0.59931332 0 1.7290001
0.61070478 0 1.738
0.62396264 0 1.7520001
0.63915825 0 1.771
0.65636313 0 1.7950001
0.66786963 0 1.8030001
0.67832673 0 1.8080001
0.69073117 0 1.8180001
0.70169199 0 1.8240001
0.72010958 0 1.8490001
0.72969818 0 1.8510001
0.74848229 0 1.876
0.75781471 0 1.8770001
0.77982002 0 1.909
0.7880792 0 1.9070001
0.81094992 0 1.9400001
0.83202088 0 1.9680001
0.85464096 0 1.9990001
0.8615613 0 1.9930001
0.87323207 0 1.9980001
0.88715947 0 2.0080001
0.91234636 0 2.043
0.92387521 0 2.0470002
0.94000298 0 2.0610001
0.95580322 0 2.0740001
0.97405511 0 2.092
0.98871547 0 2.102
1.0110731 0 2.128
1.0336783 0 2.154
1.0604081 0 2.1880002
1.0698428 0 2.1860001
1.0975428 0 2.2210002
1.1190896 0 2.243
1.1494088 0 2.2820001
1.1795907 0 2.3200002
1.2178322 0 2.3730001
1.260722 0 2.434
1.301579 0 2.49
1.3334742 0 2.5280001
1.3614732 0 2.5580001
1.3988869 0 2.605
1.4237455 0 2.628
1.4367999 0 2.6290002
1.4504149 0 2.631
1.4651611 0 2.6350002
1.4642429 0 2.6110001
1.4755388 0 2.6090002
1.487956 0 2.6090002
1.5003734 0 2.6090002
1.5145302 0 2.6120002
1.5217004 0 2.6030002
1.5334998 0 2.6020002
1.5441015 0 2.5990002
1.5576688 0 2.6010001
1.5682372 0 2.598
1.578777 0 2.595
1.5923538 0 2.5970001
1.5954454 0 2.582
1.6102251 0 2.5860002
1.6206505 0 2.5830002
1.629783 0 2.5780001
1.6369574 0 2.5700002
1.6511141 0 2.5730002
1.6633601 0 2.5730002
1.6775599 0 2.5760002
1.685884 0 2.5700002
1.6981157 0 2.5700002
1.7083509 0 2.5670002
1.7145358 0 2.5580001
1.7253605 0 2.5560002
1.7368457 0 2.5550001
1.7537977 0 2.562
1.7646129 0 2.5600002
1.7767971 0 2.5600002
1.7875832 0 2.5580001
1.7941294 0 2.5500002
0 -0 0
0 -0 0
0 -0 0
0 -0 0
0 -0 0
0 -0 0
0 -0 0
0 -0 0
0 -0 0
0 -0 0
0 -0 0
0 -0 0
0 -0 0
0 -0 0
0 -0 0
0 -0 0
0 -0 0
0 -0 0
0 -0 0
0 -0 0
0 -0 0
0 -0 0
0 -0 0
0 -0 0
0 -0 0
0 -0 0
0 -0 0
0 -0 0
0 -0 0
0 -0 0
0 -0 0
0 -0 0
0 -0 0
0 -0 0
0 -0 0
0 -0 0
0 -0 0
0 -0 0
0 -0 0
0 -0 0
0 -0 0
0 -0 0
0 -0 0
0 -0 0
0 -0 0
0 -0 0
0 -0 0
0 -0 0
0 -0 0
0 -0 0
0 -0 0
0 -0 0
0 -0 0
0 -0 0
0 -0 0
0 -0 0
0 -0 0
0 -0 0
0 -0 0
0 -0 0
-0 -0 0
-0 -0 0
-0 -0 0
-0 -0 0
-0 -0 0
-0 -0 0
-0 -0 0
-2.3946919 0 2.4170001
-2.3871326 0 2.421
-2.3844414 0 2.4300001
-2.3738525 0 2.4310002
-2.3972647 0 2.467
-2.4164665 0 2.4990001
-2.4353635 0 2.5310001
-2.4462962 0 2.5550001
-2.4684329 0 2.5910001
-2.5110817 0 2.6490002
-2.5022469 0 2.6530001
-2.5262182 0 2.6920002
-2.5227425 0 2.7020001
-2.5089538 0 2.7010002
-2.4942503 0 2.6990001
-2.4712913 0 2.6880002
-2.4584982 0 2.6880002
-2.4447949 0 2.687
-2.4301963 0 2.6850002
-2.4174173 0 2.6850002
-2.4037426 0 2.684
-2.3989856 0 2.6930001
-2.4242694 0 2.7360001
-2.4412119 0 2.7700002
-2.4490654 0 2.7940001
-2.4584341 0 2.8200002
-2.4744914 0 2.8540001
-2.4867759 0 2.8840001
-2.4756224 0 2.8870001
-2.484906 0 2.914
-2.4922369 0 2.9390001
-2.4993298 0 2.9640002
-2.5187616 0 3.0040002
-2.5061316 0 3.006
-2.4934828 0 3.0080001
-2.4791665 0 3.0080001
-2.4689474 0 3.0130002
-2.457051 0 3.016
-2.4451265 0 3.0190001
-2.4323683 0 3.0210001
-2.4203913 0 3.0240002
-2.4012251 0 3.0180001
-2.3931882 0 3.0260003
-2.4007974 0 3.0540001
-2.392513 0 3.062
-2.3810461 0 3.0660002
-2.3695409 0 3.0700002
-2.36797 0 3.0870001
-2.3555646 0 3.0900002
-2.3438883 0 3.0940001
-2.3344324 0 3.1010001
-2.3211694 0 3.1030002
-2.3093741 0 3.1070001
-2.2982793 0 3.1120002
-2.2695265 0 3.0930002
-2.2540765 0 3.0920002
-2.2393606 0 3.0920002
-2.225364 0 3.0930002
-2.2120724 0 3.095
-2.2016017 0 3.1010001
-2.1960106 0 3.1140001
-2.1825907 0 3.1160002
-2.1809785 0 3.1350002
-2.1674395 0 3.1370001
-2.1751528 0 3.1700001
-2.1566584 0 3.1650002
-2.1598644 0 3.1920002
-2.1473598 0 3.1960001
-2.1441572 0 3.2140002
-2.1328347 0 3.2200003
-2.1339495 0 3.2450001
-2.1243811 0 3.2540002
-2.1127825 0 3.2600002
-2.1049867 0 3.2720001
-2.0932455 0 3.2780001
-2.0795455 0 3.2810001
-2.0683331 0 3.2880001
-2.0701647 0 3.3160002
-2.0587192 0 3.3230002
-2.0435183 0 3.3240001
-2.0258682 0 3.3210001
-2.0397196 0 3.3700001
-2.0356903 0 3.3900001
-2.021939 0 3.3940001
-2.0075586 0 3.3970001
-1.9937357 0 3.4010003
-1.9787118 0 3.4030001
-1.9642457 0 3.4060001
-1.9491789 0 3.4080002
-1.9363619 0 3.4140003
-1.9218006 0 3.4170001
-1.906653 0 3.4190001
-1.8997799 0 3.4360001
-1.8861674 0 3.4410002
-1.8719637 0 3.4450002
-1.8582606 0 3.45
-1.8573229 0 3.4790001
-1.8370612 0 3.4720001
-1.8215852 0 3.4740002
-1.8060902 0 3.4760001
-1.7910908 0 3.4790001
-1.775043 0 3.4800003
-1.7736397 0 3.5100002
-1.7574346 0 3.5110002
-1.7422117 0 3.5140002
-1.7284333 0 3.5200002
-1.7131391 0 3.5230002
-1.7060019 0 3.5430002
-1.6891392 0 3.5430002
-1.6736927 0 3.5460002
-1.6600865 0 3.5530002
-1.6579754 0 3.5850003
-1.6413707 0 3.5860002
-1.6261153 0 3.5900002
-1.6072361 0 3.5860002
-1.5906124 0 3.5870001
-1.573979 0 3.5880001
-1.5733912 0 3.6260002
-1.5565627 0 3.6270001
-1.5388759 0 3.6260002
-1.5400825 0 3.6700001
-1.5213708 0 3.6670001
-1.516632 0 3.6980002
-1.5103817 0 3.7260001
-1.4930488 0 3.7270002
-1.4753106 0 3.7270002
-1.4704779 0 3.7600002
-1.4606954 0 3.7810001
-1.4510945 0 3.8030002
-1.4409072 0 3.8240001
-1.4308923 0 3.8460002
-1.420668 0 3.8680003
-1.4105967 0 3.8910003
-1.3999488 0 3.9130001
-1.3813251 0 3.9130001
-1.3707113 0 3.9360001
-1.3519783 0 3.9360001
-1.3332452 0 3.9360001
-1.3221935 0 3.9590001
-1.303351 0 3.9590001
-1.2922955 0 3.9830003
-1.2883643 0 4.0300002
-1.2691839 0 4.0300002
-1.2577578 0 4.0550003
-1.2457883 0 4.079
-1.2263747 0 4.079
-1.2069609 0 4.079
-1.1875473 0 4.079
-1.1681337 0 4.079
-1.14872 0 4.079
-1.1293064 0 4.079
-1.1098928 0 4.079
-1.0904791 0 4.079
-1.0710655 0 4.079
-1.0580975 0 4.1040001
-1.0385648 0 4.1040001
-1.0190322 0 4.1040001
-0.99949956 0 4.1040001
-0.98593652 0 4.1290002
-0.96628499 0 4.1290002
-0.95259422 0 4.1550002
-0.93281883 0 4.1550002
-0.9185372 0 4.1800003
-0.89864284 0 4.1800003
-0.88442457 0 4.2070003
-0.86440176 0 4.2070003
-0.84959733 0 4.2330003
-0.83474135 0 4.2600002
-0.81446624 0 4.2600002
-0.79922479 0 4.2870002
-0.78372627 0 4.3140001
-0.76814759 0 4.342
-0.75247473 0 4.3710003
-0.73167133 0 4.3710003
-0.71086794 0 4.3710003
-0.69006455 0 4.3710003
-0.66926116 0 4.3710003
-0.64415544 0 4.342
-0.62349004 0 4.342
-0.59893733 0 4.3140001
-0.5784052 0 4.3140001
-0.55787313 0 4.3140001
-0.537341 0 4.3140001
-0.51680893 0 4.3140001
-0.4931708 0 4.2870002
-0 -0 0
-0 -0 0
-0 -0 0
-0 -0 0
-0 -0 0
-0 -0 0
-0 -0 0
-0 -0 0
-0.13870382 0 1.9210001
-0.12888655 0 1.9110001
-0.11960325 0 1.9080001
-0.11029059 0 1.904
-0.10112234 0 1.9020001
-0.091924727 0 1.899
-0.082886599 0 1.899
-0.073887363 0 1.9000001
-0.064912736 0 1.9020001
-0.055948447 0 1.9050001
-0.04698021 0 1.909
-0.037993744 0 1.914
-0.028974777 0 1.9200001
-0.01991936 0 1.9280001
-0.010793364 0 1.937
-0.0015808863 0 1.9450001
0.0076998486 0 1.9510001
0.017028991 0 1.9560001
0.026419193 0 1.9620001
0.035866506 0 1.9680001
0.045370936 0 1.9740001
0.055071194 0 1.9850001
0.064648636 0 1.9890001
0.074264161 0 1.9930001
0.083749667 0 1.9930001
0.093188398 0 1.9920001
0.10251451 0 1.9890001
0.11175579 0 1.9850001
0.12083686 0 1.9790001
0.12953173 0 1.9680001
0.13854535 0 1.9630001
0.14758673 0 1.9590001
0.15626964 0 1.9510001
0.16513097 0 1.9460001
0.1738551 0 1.9400001
0.18261647 0 1.9350001
0.19133027 0 1.9300001
0.19999646 0 1.9250001
0.20904967 0 1.9240001
0.21775313 0 1.9200001
0.22630033 0 1.9150001
0.23430821 0 1.9060001
0.24299659 0 1.9030001
0.25046432 0 1.891
0.2583667 0 1.8830001
0.26619291 0 1.8750001
0.2735028 0 1.8640001
0.2813139 0 1.8570001
0.28983966 0 1.8550001
0.29625323 0 1.84
0.30368441 0 1.8320001
0.31086895 0 1.8230001
0.31814307 0 1.8150001
0.32570115 0 1.8090001
0.33357167 0 1.8050001
0.34045637 0 1.7960001
0.34783831 0 1.7900001
0.3559595 0 1.7880001
0.36345011 0 1.7830001
0.37089315 0 1.7780001
0.37508816 0 1.7580001
0.38214648 0 1.7520001
0.3891477 0 1.7460001
0.39609179 0 1.7400001
0.40111959 0 1.7260001
0.40791139 0 1.72
0.41488796 0 1.715
0.42181697 0 1.71
0.42844698 0 1.7040001
0.43501985 0 1.6980001
0.44127464 0 1.6910001
0.44772848 0 1.6850001
0.45412531 0 1.6790001
0.45963922 0 1.6700001
0.46590751 0 1.664
0.47240341 0 1.659
0.47885171 0 1.654
0.48613524 0 1.6520001
0.49369875 0 1.651
0.50216413 0 1.6530001
0.51064855 0 1.6550001
0.52009189 0 1.6600001
0.52926475 0 1.664
0.54073554 0 1.6750001
0.55460411 0 1.6930001
0.56532055 0 1.7010001
0.57510191 0 1.7060001
0.58356333 0 1.7070001
0.59862006 0 1.7270001
0.61351585 0 1.7460001
0.62253809 0 1.748
0.64060187 0 1.7750001
0.65563178 0 1.7930001
0.6671288 0 1.8010001
0.67795151 0 1.807
0.69073117 0 1.8180001
0.70130724 0 1.8230001
0.72049904 0 1.8500001
0.72890979 0 1.8490001
0.74928027 0 1.8780001
0.75902593 0 1.8800001
0.7802285 0 1.9100001
0.80254322 0 1.9420002
0.81094992 0 1.9400001
0.83751696 0 1.9810001
0.84908301 0 1.9860001
0.86069667 0 1.9910001
0.8723579 0 1.9960001
0.88892668 0 2.0120001
0.91100675 0 2.0400002
0.9229725 0 2.0450001
0.94228333 0 2.066
0.95580322 0 2.0740001
0.97545195 0 2.095
0.98777479 0 2.1000001
1.0110731 0 2.128
1.0351179 0 2.1570001
1.0608927 0 2.1890001
1.0698428 0 2.1860001
1.0960603 0 2.2180002
1.1195886 0 2.2440002
1.1463866 0 2.276
1.2045045 0 2.3690002
1.2383604 0 2.4130001
1.2705634 0 2.4530001
1.3073291 0 2.5010002
1.3429688 0 2.546
1.3816985 0 2.5960002
1.399424 0 2.6060002
1.4221203 0 2.6250002
1.4351604 0 2.6260002
1.4410433 0 2.6140001
1.4529282 0 2.6130002
1.4642429 0 2.6110001
1.4766698 0 2.6110001
1.4851043 0 2.6040001
1.4969229 0 2.6030002
1.5133705 0 2.6100001
1.519362 0 2.5990002
1.5299636 0 2.5960002
1.5441015 0 2.5990002
1.5564711 0 2.5990002
1.5664263 0 2.595
1.5757351 0 2.5900002
1.580704 0 2.5780001
1.5942097 0 2.5800002
1.6089797 0 2.5840001
1.6200229 0 2.582
1.6272544 0 2.5740001
1.6350465 0 2.5670002
1.649189 0 2.5700002
1.6646529 0 2.575
1.6769085 0 2.575
1.6937557 0 2.582
1.7067055 0 2.5830002
1.7116784 0 2.572
1.7292817 0 2.5800002
1.7415611 0 2.5800002
1.7524807 0 2.5780001
1.757905 0 2.5680001
1.7680593 0 2.5650001
1.7788792 0 2.5630002
1.788981 0 2.5600002
1.7913148 0 2.546
1.8005991 0 2.5420001
0 -0 0
0 -0 0
0 -0 0
0 -0 0
0 -0 0
0 -0 0
0 -0 0
0 -0 0
0 -0 0
0 -0 0
0 -0 0
0 -0 0
0 -0 0
0 -0 0
0 -0 0
0 -0 0
0 -0 0
0 -0 0
0 -0 0
0 -0 0
0 -0 0
0 -0 0
0 -0 0
0 -0 0
0 -0 0
0 -0 0
0 -0 0
0 -0 0
0 -0 0
0 -0 0
0 -0 0
0 -0 0
0 -0 0
0 -0 0
0 -0 0
0 -0 0
0 -0 0
0 -0 0
0 -0 0
0 -0 0
0 -0 0
0 -0 0
0 -0 0
0 -0 0
0 -0 0
0 -0 0
0 -0 0
0 -0 0
0 -0 0
0 -0 0
0 -0 0
0 -0 0
0 -0 0
0 -0 0
0 -0 0
0 -0 0
0 -0 0
0 -0 0
0 -0 0
-0 -0 0
-0 -0 0
-0 -0 0
-0 -0 0
-0 -0 0
-0 -0 0
-0 -0 0
-2.3421812 0 2.3640001
-2.3417761 0 2.375
-2.3324349 0 2.3770001
-2.3416281 0 2.398
-2.3583953 0 2.427
-2.4058297 0 2.4880002
-2.428628 0 2.5240002
-2.4443815 0 2.5530002
-2.4541428 0 2.5760002
-2.4428303 0 2.5770001
-2.4758379 0 2.6250002
-2.4689748 0 2.631
-2.4555192 0 2.6300001
-2.4467175 0 2.6340001
-2.4415743 0 2.6420002
-2.4289999 0 2.6420002
-2.4164257 0 2.6420002
-2.4029412 0 2.641
-2.3903716 0 2.641
-2.3778021 0 2.641
-2.3661282 0 2.6420002
-2.3642435 0 2.654
-2.3852828 0 2.6920002
-2.3945029 0 2.7170002
-2.4175098 0 2.7580001
-2.4183321 0 2.7740002
-2.4398103 0 2.8140001
-2.4488363 0 2.8400002
-2.4713349 0 2.8820002
-2.4576182 0 2.8820002
-2.4710371 0 2.914
-2.4849949 0 2.947
-2.5162463 0 3.0010002
-2.5061316 0 3.006
-2.4934828 0 3.0080001
-2.4783425 0 3.0070002
-2.4689474 0 3.0130002
-2.457051 0 3.016
-2.4451265 0 3.0190001
-2.4331734 0 3.0220001
-2.4203913 0 3.0240002
-2.4123638 0 3.0320001
-2.3923972 0 3.0250001
-2.4007974 0 3.0540001
-2.3917317 0 3.0610001
-2.3810461 0 3.0660002
-2.3734 0 3.075
-2.3664358 0 3.085
-2.3548024 0 3.0890002
-2.3431306 0 3.0930002
-2.3321738 0 3.098
-2.3189254 0 3.1000001
-2.3041711 0 3.1000001
-2.289417 0 3.1000001
-2.2731953 0 3.098
-2.2577214 0 3.0970001
-2.2458787 0 3.1010001
-2.2289612 0 3.098
-2.2113576 0 3.0940001
-2.200892 0 3.1000001
-2.1931899 0 3.1100001
-2.1804893 0 3.1130002
-2.1816742 0 3.1360002
-2.1681304 0 3.1380002
-2.1840727 0 3.1830001
-2.1764193 0 3.1940002
-2.1598644 0 3.1920002
-2.1675165 0 3.2260001
-2.1514957 0 3.2250001
-2.1354842 0 3.2240002
-2.1346071 0 3.2460001
-2.1243811 0 3.2540002
-2.1127825 0 3.2600002
-2.1030567 0 3.2690001
-2.0913298 0 3.2750001
-2.0789118 0 3.2800002
-2.0702205 0 3.2910001
-2.0570545 0 3.2950001
-2.0605779 0 3.3260002
-2.0447478 0 3.3260002
-2.0520988 0 3.3640001
-2.0391145 0 3.3690002
-2.0368915 0 3.3920002
-2.0225348 0 3.3950002
-2.0081496 0 3.3980002
-1.9943218 0 3.4020002
-1.9792933 0 3.404
-1.9677058 0 3.4120002
-1.9537544 0 3.4160001
-1.939765 0 3.4200001
-1.9324867 0 3.4360001
-1.9166911 0 3.4370003
-1.9003329 0 3.4370003
-1.8889081 0 3.4460001
-1.8746806 0 3.45
-1.8604152 0 3.4540002
-1.8503827 0 3.4660001
-1.8354738 0 3.4690001
-1.8200121 0 3.4710002
-1.8050511 0 3.4740002
-1.7900614 0 3.4770002
-1.7745328 0 3.4790001
-1.774145 0 3.5110002
-1.757935 0 3.5120001
-1.7417159 0 3.5130002
-1.7284333 0 3.5200002
-1.7136253 0 3.5240002
-1.7050388 0 3.5410001
-1.6891392 0 3.5430002
-1.6732206 0 3.5450001
-1.6619554 0 3.5570002
-1.6575129 0 3.5840001
-1.640913 0 3.5850003
-1.629739 0 3.5980003
-1.6179929 0 3.6100001
-1.6016984 0 3.6120002
-1.5941583 0 3.6340001
-1.5725232 0 3.6240001
-1.5763041 0 3.6730001
-1.5596716 0 3.6750002
-1.5413414 0 3.6730001
-1.5342321 0 3.6980002
-1.5285255 0 3.7270002
-1.5103817 0 3.7260001
-1.5062687 0 3.7600002
-1.496686 0 3.7810001
-1.4786906 0 3.7810001
-1.4691945 0 3.8030002
-1.4591074 0 3.8240001
-1.4409072 0 3.8240001
-1.4308923 0 3.8460002
-1.4291157 0 3.8910003
-1.4105967 0 3.8910003
-1.3999488 0 3.9130001
-1.3813251 0 3.9130001
-1.3707113 0 3.9360001
-1.3519783 0 3.9360001
-1.3332452 0 3.9360001
-1.3145123 0 3.9360001
-1.303351 0 3.9590001
-1.2922955 0 3.9830003
-1.2806916 0 4.006
-1.2691839 0 4.0300002
-1.2577578 0 4.0550003
-1.2457883 0 4.079
-1.2263747 0 4.079
-1.2069609 0 4.079
-1.1875473 0 4.079
-1.1681337 0 4.079
-1.14872 0 4.079
-1.1293064 0 4.079
-1.1098928 0 4.079
-1.0904791 0 4.079
-1.07763 0 4.1040001
-1.0580975 0 4.1040001
-1.0385648 0 4.1040001
-1.0190322 0 4.1040001
-0.99949956 0 4.1040001
-0.98593652 0 4.1290002
-0.96628499 0 4.1290002
-0.94663334 0 4.1290002
-0.93281883 0 4.1550002
-0.91304356 0 4.1550002
-0.89326817 0 4.1550002
-0.87874848 0 4.1800003
-0.86440176 0 4.2070003
-0.84437895 0 4.2070003
-0.82945073 0 4.2330003
-0.81446624 0 4.2600002
-0.79922479 0 4.2870002
-0.78372627 0 4.3140001
-0.76814759 0 4.342
-0.75247473 0 4.3710003
-0.73167133 0 4.3710003
-0.71086794 0 4.3710003
-0.69006455 0 4.3710003
-0.66926116 0 4.3710003
-0.64415544 0 4.342
-0.62349004 0 4.342
-0.60282475 0 4.342
-0.58215934 0 4.342
-0.56149399 0 4.342
-0.54082859 0 4.342
-0.52016324 0 4.342
-0.49627683 0 4.3140001
-0 -0 0
-0 -0 0
-0 -0 0
-0 -0 0
-0 -0 0
-0 -0 0
-0 -0 0
-0 -0 0
-0.13877602 0 1.9220001
-0.12875167 0 1.909
-0.11954056 0 1.9070001
-0.11023267 0 1.9030001
-0.10101601 0 1.9000001
-0.091876321 0 1.8980001
-0.082842954 0 1.8980001
-0.073848478 0 1.899
-0.064878613 0 1.9010001
-0.055919077 0 1.904
-0.0469556 0 1.9080001
-0.037993744 0 1.914
-0.028989868 0 1.9210001
-0.019909028 0 1.927
-0.010860231 0 1.9490001
-0.0015833247 0 1.9480001
0.007707742 0 1.9530001
0.017037697 0 1.9570001
0.026432658 0 1.9630001
0.035884731 0 1.9690001
0.045370936 0 1.9740001
0.055071194 0 1.9850001
0.064648636 0 1.9890001
0.074264161 0 1.9930001
0.083749667 0 1.9930001
0.093188398 0 1.9920001
0.10256606 0 1.9900001
0.11175579 0 1.9850001
0.12083686 0 1.9790001
0.12959754 0 1.9690001
0.13861594 0 1.9640001
0.14766207 0 1.96
0.15642983 0 1.9530001
0.16521582 0 1.9470001
0.17403433 0 1.9420002
0.18271084 0 1.9360001
0.19142941 0 1.9310001
0.20010035 0 1.9260001
0.20883235 0 1.9220001
0.21775313 0 1.9200001
0.22630033 0 1.9150001
0.23492287 0 1.9110001
0.24261351 0 1.9000001
0.25019944 0 1.8890001
0.25795507 0 1.8800001
0.26590899 0 1.8730001
0.27320933 0 1.8620001
0.28101093 0 1.8550001
0.28874591 0 1.848
0.29609224 0 1.8390001
0.30335289 0 1.83
0.31052789 0 1.8210001
0.3179678 0 1.8140001
0.32570115 0 1.8090001
0.3333869 0 1.8040001
0.34026679 0 1.7950001
0.34900427 0 1.7960001
0.35635766 0 1.7900001
0.36385781 0 1.7850001
0.37131035 0 1.7800001
0.37530151 0 1.7590001
0.3823646 0 1.7530001
0.38937059 0 1.7470001
0.39495361 0 1.7350001
0.40158439 0 1.728
0.40838572 0 1.7220001
0.41537184 0 1.7170001
0.42206368 0 1.7110001
0.42869839 0 1.705
0.43527606 0 1.6990001
0.44153556 0 1.692
0.44799423 0 1.6860001
0.45412531 0 1.6790001
0.45963922 0 1.6700001
0.46590751 0 1.664
0.47240341 0 1.659
0.47885171 0 1.654
0.48613524 0 1.6520001
0.49399778 0 1.6520001
0.50246787 0 1.654
0.51095712 0 1.6560001
0.52009189 0 1.6600001
0.52958286 0 1.6650001
0.54138124 0 1.677
0.55460411 0 1.6930001
0.56532055 0 1.7010001
0.57510191 0 1.7060001
0.58322144 0 1.7060001
0.59411395 0 1.7140001
0.61281312 0 1.7440001
0.62146968 0 1.7450001
0.64060187 0 1.7750001
0.65416914 0 1.789
0.66675836 0 1.8000001
0.67757636 0 1.8060001
0.69073117 0 1.8180001
0.70130724 0 1.8230001
0.72049904 0 1.8500001
0.72575605 0 1.8410001
0.74209869 0 1.8600001
0.7602371 0 1.8830001
0.7802285 0 1.9100001
0.80419618 0 1.9460001
0.82516247 0 1.9740001
0.83667141 0 1.9790001
0.84822792 0 1.9840001
0.86026442 0 1.9900001
0.87192088 0 1.9950001
0.8884849 0 2.0110002
0.91100675 0 2.0400002
0.92252123 0 2.0440001
0.93954688 0 2.0600002
0.95626402 0 2.075
0.9745208 0 2.0930002
0.98683405 0 2.098
1.0105981 0 2.1270001
1.0355978 0 2.158
1.0579848 0 2.1830001
1.073758 0 2.194
1.0960603 0 2.2180002
1.1205864 0 2.2460001
0 -0 0
1.2045045 0 2.3690002
1.2491376 0 2.434
1.2798868 0 2.4710002
1.3141245 0 2.5140002
1.3450788 0 2.5500002
1.3816985 0 2.5960002
1.3988869 0 2.605
1.4210368 0 2.6230001
1.4335208 0 2.6230001
1.440492 0 2.6130002
1.4529282 0 2.6130002
1.4485407 0 2.5830002
1.4608343 0 2.5830002
1.4828231 0 2.6000001
1.4946226 0 2.5990002
1.497135 0 2.582
1.5170234 0 2.595
1.5281956 0 2.5930002
1.5375662 0 2.5880001
1.5397025 0 2.5710001
1.5549573 0 2.5760002
1.5599169 0 2.5640001
1.5788645 0 2.575
1.5787618 0 2.5550001
1.591545 0 2.5560002
1.6030824 0 2.5550001
1.6240933 0 2.569
1.6356834 0 2.5680001
1.6498306 0 2.5710001
1.6633601 0 2.5730002
1.6788622 0 2.5780001
1.687852 0 2.5730002
1.7014194 0 2.575
1.7130095 0 2.5740001
1.729952 0 2.5810001
1.742236 0 2.5810001
1.7531606 0 2.5790002
1.7606431 0 2.572
1.7701272 0 2.5680001
1.7802672 0 2.5650001
1.7910775 0 2.5630002
1.7892044 0 2.5430002
1.7998908 0 2.5410001
1.7962961 0 2.5190001
1.8104388 0 2.5220001
0 -0 0
0 -0 0
0 -0 0
0 -0 0
0 -0 0
0 -0 0
0 -0 0
0 -0 0
0 -0 0
0 -0 0
0 -0 0
0 -0 0
0 -0 0
0 -0 0
0 -0 0
0 -0 0
0 -0 0
0 -0 0
0 -0 0
0 -0 0
0 -0 0
0 -0 0
0 -0 0
0 -0 0
0 -0 0
0 -0 0
0 -0 0
0 -0 0
0 -0 0
0 -0 0
0 -0 0
0 -0 0
0 -0 0
0 -0 0
0 -0 0
0 -0 0
0 -0 0
0 -0 0
0 -0 0
0 -0 0
0 -0 0
0 -0 0
0 -0 0
0 -0 0
0 -0 0
0 -0 0
0 -0 0
0 -0 0
0 -0 0
0 -0 0
0 -0 0
0 -0 0
0 -0 0
0 -0 0
0 -0 0
0 -0 0
0 -0 0
-0 -0 0
-0 -0 0
-0 -0 0
-0 -0 0
-0 -0 0
-0 -0 0
-0 -0 0
-0 -0 0
-2.32107 0 2.3540001
-2.3098662 0 2.3540001
-2.3064747 0 2.3620002
-2.3224413 0 2.3900001
-2.3478115 0 2.4280002
-2.3660841 0 2.4590001
-2.3754449 0 2.4810002
-2.3998389 0 2.5190001
-2.388798 0 2.5200002
-2.413588 0 2.559
-2.4051626 0 2.5630002
-2.3966987 0 2.5670002
-2.3891258 0 2.572
-2.3805811 0 2.5760002
-2.3710792 0 2.5790002
-2.3615484 0 2.582
-2.351989 0 2.585
-2.3433065 0 2.5890002
-2.3327851 0 2.5910001
-2.3329916 0 2.605
-2.3205931 0 2.605
-2.3276885 0 2.6270001
-2.3539629 0 2.6710002
-2.3596578 0 2.6920002
-2.3773582 0 2.7270002
-2.3912568 0 2.7580001
-2.4083097 0 2.7930002
-2.4147396 0 2.8160002
-2.4320359 0 2.8520002
-2.4498374 0 2.8890002
-2.4765625 0 2.937
-2.4676149 0 2.9430001
-2.5027969 0 3.0020001
-2.4918249 0 3.006
-2.4791665 0 3.0080001
-2.4689474 0 3.0130002
-2.457051 0 3.016
-2.4451265 0 3.0190001
-2.4339786 0 3.0230002
-2.4219921 0 3.0260003
-2.4107728 0 3.0300002
-2.4010968 0 3.0360003
-2.3819306 0 3.0300002
-2.3886063 0 3.0570002
-2.3833759 0 3.0690002
-2.374172 0 3.0760002
-2.3649018 0 3.0830002
-2.3532777 0 3.0870001
-2.340858 0 3.0900002
-2.3261516 0 3.0900002
-2.313689 0 3.0930002
-2.3034279 0 3.0990002
-2.2872014 0 3.0970001
-2.2717278 0 3.0960002
-2.2591796 0 3.0990002
-2.2444303 0 3.0990002
-2.2311196 0 3.1010001
-2.215646 0 3.1000001
-2.200182 0 3.0990002
-2.1917794 0 3.108
-2.1790884 0 3.1110001
-2.1830657 0 3.1380002
-2.1681304 0 3.1380002
-2.1861315 0 3.1860001
-2.1757379 0 3.1930001
-2.1605411 0 3.1930001
-2.1668446 0 3.2250001
-2.1521628 0 3.2260001
-2.1407831 0 3.2320001
-2.1359224 0 3.2480001
-2.1250339 0 3.2550001
-2.1127825 0 3.2600002
-2.1017702 0 3.2670002
-2.0894139 0 3.2720001
-2.0770104 0 3.2770002
-2.0733657 0 3.2960002
-2.0595517 0 3.2990003
-2.0618167 0 3.3280001
-2.0459774 0 3.3280001
-2.0539289 0 3.3670001
-2.0403249 0 3.3710001
-2.0368915 0 3.3920002
-2.0231307 0 3.3960001
-2.0087404 0 3.3990002
-1.9954942 0 3.404
-1.9810377 0 3.4070001
-1.9665525 0 3.4100001
-1.9526106 0 3.4140003
-1.9443024 0 3.4280002
-1.9307994 0 3.4330001
-1.9144603 0 3.4330001
-1.9008857 0 3.4380002
-1.8911006 0 3.45
-1.8768543 0 3.4540002
-1.8620311 0 3.4570003
-1.8498489 0 3.4650002
-1.8344157 0 3.4670002
-1.8189633 0 3.4690001
-1.8040118 0 3.4720001
-1.7890316 0 3.4750001
-1.7740228 0 3.4780002
-1.7736397 0 3.5100002
-1.757935 0 3.5120001
-1.7427075 0 3.5150001
-1.7294153 0 3.5220001
-1.7145978 0 3.5260003
-1.7055203 0 3.5420001
-1.6905695 0 3.5460002
-1.6718047 0 3.5420001
-1.6647588 0 3.5630002
-1.6565881 0 3.5820003
-1.6399975 0 3.5830002
-1.629739 0 3.5980003
-1.6162001 0 3.6060002
-1.5994811 0 3.6070001
-1.5954742 0 3.6370001
-1.574259 0 3.6280003
-1.5771624 0 3.6750002
-1.5605204 0 3.6770003
-1.5400825 0 3.6700001
-1.5462638 0 3.7270002
-1.5285255 0 3.7270002
-1.5241641 0 3.7600002
-1.5146813 0 3.7810001
-1.5053946 0 3.8030002
-1.4872946 0 3.8030002
-1.4691945 0 3.8030002
-1.4591074 0 3.8240001
-1.4491971 0 3.8460002
-1.4390775 0 3.8680003
-1.4291157 0 3.8910003
-1.4105967 0 3.8910003
-1.3999488 0 3.9130001
-1.3894444 0 3.9360001
-1.3627015 0 3.9130001
-1.3519783 0 3.9360001
-1.3332452 0 3.9360001
-1.3145123 0 3.9360001
-1.303351 0 3.9590001
-1.2922955 0 3.9830003
-1.2806916 0 4.006
-1.2691839 0 4.0300002
-1.2577578 0 4.0550003
-1.2384584 0 4.0550003
-1.2263747 0 4.079
-1.2069609 0 4.079
-1.1875473 0 4.079
-1.1681337 0 4.079
-1.14872 0 4.079
-1.1293064 0 4.079
-1.1098928 0 4.079
-1.0971627 0 4.1040001
-1.07763 0 4.1040001
-1.0580975 0 4.1040001
-1.0385648 0 4.1040001
-1.0190322 0 4.1040001
-0.99949956 0 4.1040001
-0.98593652 0 4.1290002
-0.96628499 0 4.1290002
-0.94663334 0 4.1290002
-0.92698169 0 4.1290002
-0.91304356 0 4.1550002
-0.89326817 0 4.1550002
-0.87349278 0 4.1550002
-0.85885412 0 4.1800003
-0.84437895 0 4.2070003
-0.82945073 0 4.2330003
-0.81446624 0 4.2600002
-0.79922479 0 4.2870002
-0.78372627 0 4.3140001
-0.76814759 0 4.342
-0.75247473 0 4.3710003
-0.73167133 0 4.3710003
-0.71086794 0 4.3710003
-0.69006455 0 4.3710003
-0.66482085 0 4.342
-0.64415544 0 4.342
-0.6194694 0 4.3140001
-0.60282475 0 4.342
-0.58215934 0 4.342
-0.5652442 0 4.3710003
-0.54444081 0 4.3710003
-0.52363741 0 4.3710003
-0.50283408 0 4.3710003
-0 -0 0
-0 -0 0
-0 -0 0
-0 -0 0
-0 -0 0
-0 -0 0
-0 -0 0
-0 -0 0
-0 -0 0
-0.12868422 0 1.9080001
-0.11941519 0 1.9050001
-0.11017475 0 1.9020001
-0.10096284 0 1.899
-0.091827914 0 1.8970001
-0.082799308 0 1.8970001
-0.073809594 0 1.8980001
-0.064878613 0 1.9010001
-0.055919077 0 1.904
-0.0469556 0 1.9080001
-0.037973896 0 1.9130001
-0.028989868 0 1.9210001
-0.020125993 0 1.9480001
-0.010849087 0 1.9470001
-0.0015890143 0 1.955
0.0077353683 0 1.96
0.017107345 0 1.9650002
0.026446123 0 1.9640001
0.036121655 0 1.9820001
0.045393921 0 1.9750001
0.055071194 0 1.9850001
0.064648636 0 1.9890001
0.074226893 0 1.9920001
0.083749667 0 1.9930001
0.093188398 0 1.9920001
0.10251451 0 1.9890001
0.11175579 0 1.9850001
0.12089793 0 1.9800001
0.12992664 0 1.9740001
0.13889824 0 1.9680001
0.14781275 0 1.9620001
0.15659003 0 1.955
0.16538554 0 1.9490001
0.17421356 0 1.9440001
0.18289959 0 1.9380001
0.19152853 0 1.932
0.20030813 0 1.9280001
0.20894101 0 1.9230001
0.21741289 0 1.9170001
0.22618215 0 1.914
0.234677 0 1.909
0.24235813 0 1.8980001
0.24980208 0 1.886
0.2574062 0 1.876
0.26548308 0 1.8700001
0.27276915 0 1.8590001
0.28070796 0 1.853
0.28827715 0 1.845
0.29657528 0 1.8420001
0.30302134 0 1.8280001
0.31018683 0 1.8190001
0.31779251 0 1.8130001
0.32534105 0 1.807
0.33264765 0 1.8000001
0.34007722 0 1.794
0.34744969 0 1.7880001
0.35635766 0 1.7900001
0.36385781 0 1.7850001
0.37131035 0 1.7800001
0.37551486 0 1.7600001
0.3823646 0 1.7530001
0.38937059 0 1.7470001
0.39518121 0 1.7360001
0.40181679 0 1.7290001
0.40886003 0 1.7240001
0.41561371 0 1.7180001
0.42231035 0 1.7120001
0.42920128 0 1.7070001
0.43527606 0 1.6990001
0.44153556 0 1.692
0.44772848 0 1.6850001
0.45412531 0 1.6790001
0.459364 0 1.669
0.46590751 0 1.664
0.47240341 0 1.659
0.47885171 0 1.654
0.48613524 0 1.6520001
0.49399778 0 1.6520001
0.50246787 0 1.654
0.51095712 0 1.6560001
0.52040523 0 1.6610001
0.52926475 0 1.664
0.54105842 0 1.6760001
0.55165589 0 1.6840001
0.56598526 0 1.7030001
0.57307923 0 1.7
0.58287954 0 1.705
0.59342074 0 1.7120001
0.60121745 0 1.7110001
0.62075734 0 1.743
0.63518834 0 1.7600001
0.65343779 0 1.7870001
0.66675836 0 1.8000001
0.67795151 0 1.807
0.69073117 0 1.8180001
0.70169199 0 1.8240001
0.70842582 0 1.8190001
0.72417915 0 1.8370001
0.73850787 0 1.8510001
0.76064086 0 1.8840001
0.77982002 0 1.909
0.79965037 0 1.9350001
0.82432646 0 1.9720001
0.83540308 0 1.9760001
0.84737289 0 1.9820001
0.85983211 0 1.9890001
0.8723579 0 1.9960001
0.88627583 0 2.006
0.91056007 0 2.039
0.92206979 0 2.043
0.94547611 0 2.0730002
0.9511947 0 2.0640001
0.97405511 0 2.092
0.98636371 0 2.0970001
1.0139239 0 2.1340001
1.0365576 0 2.1600001
1.0608927 0 2.1890001
1.0766945 0 2.2
1.1044611 0 2.2350001
1.130066 0 2.2650001
0 -0 0
1.2055213 0 2.3710001
1.2491376 0 2.434
1.2798868 0 2.4710002
1.3109881 0 2.5080001
1.3461337 0 2.552
1.3816985 0 2.5960002
1.397813 0 2.6030002
1.4194115 0 2.6200001
1.4275091 0 2.6120002
1.4393893 0 2.6110001
1.4379152 0 2.5860002
1.4491014 0 2.5840001
1.4608343 0 2.5830002
1.4742683 0 2.585
1.4859964 0 2.5840001
1.4959755 0 2.5800002
1.5094237 0 2.582
1.5264275 0 2.5900002
1.5405368 0 2.5930002
1.5379059 0 2.5680001
1.55375 0 2.5740001
1.5587 0 2.562
1.5721198 0 2.5640001
1.5812335 0 2.559
1.589677 0 2.5530002
1.6012001 0 2.552
1.6221969 0 2.5660002
1.6331357 0 2.5640001
1.6472638 0 2.5670002
1.6581882 0 2.5650001
1.678211 0 2.5770001
1.6871959 0 2.572
1.7014194 0 2.575
1.7349712 0 2.6070001
1.7473788 0 2.6070001
1.7597866 0 2.6070001
1.7715148 0 2.6060002
1.7661196 0 2.5800002
1.7756417 0 2.5760002
1.7802672 0 2.5650001
1.7910775 0 2.5630002
1.7821685 0 2.5330002
1.7828907 0 2.5170002
1.7941568 0 2.516
1.8018246 0 2.5100002
1.8116028 0 2.5070002
1.826444 0 2.5110002
0 -0 0
0 -0 0
0 -0 0
0 -0 0
0 -0 0
0 -0 0
0 -0 0
0 -0 0
0 -0 0
0 -0 0
0 -0 0
0 -0 0
0 -0 0
0 -0 0
0 -0 0
0 -0 0
0 -0 0
0 -0 0
0 -0 0
0 -0 0
0 -0 0
0 -0 0
0 -0 0
0 -0 0
0 -0 0
0 -0 0
0 -0 0
0 -0 0
0 -0 0
0 -0 0
0 -0 0
0 -0 0
0 -0 0
0 -0 0
0 -0 0
0 -0 0
0 -0 0
0 -0 0
0 -0 0
0 -0 0
0 -0 0
0 -0 0
0 -0 0
0 -0 0
0 -0 0
0 -0 0
0 -0 0
0 -0 0
0 -0 0
0 -0 0
0 -0 0
0 -0 0
0 -0 0
0 -0 0
0 -0 0
-0 -0 0
-0 -0 0
-0 -0 0
-0 -0 0
-0 -0 0
-0 -0 0
-0 -0 0
-0 -0 0
-2.3279719 0 2.3610001
-2.3177164 0 2.3620002
-2.3054979 0 2.3610001
-2.2962046 0 2.3630002
-2.3275049 0 2.4070001
-2.3622353 0 2.4550002
-2.3476787 0 2.4520001
-2.3684001 0 2.4860001
-2.3613079 0 2.4910002
-2.3551114 0 2.4970002
-2.347919 0 2.5020001
-2.3406794 0 2.5070002
-2.3333919 0 2.5120001
-2.326057 0 2.5170002
-2.3195937 0 2.523
-2.3121591 0 2.5280001
-2.3064961 0 2.5350001
-2.2980514 0 2.539
-2.2904692 0 2.5440001
-2.2837346 0 2.5500002
-2.2840695 0 2.5640001
-2.3090813 0 2.6060002
-2.2957966 0 2.605
-2.3105714 0 2.6360002
-2.325923 0 2.6680002
-2.3435705 0 2.7030001
-2.3686457 0 2.7470002
-2.3847268 0 2.7810001
-2.4013369 0 2.8160002
-2.418462 0 2.8520002
-2.433558 0 2.8860002
-2.4508455 0 2.9230001
-2.4769518 0 2.9710002
-2.4868512 0 3.0000002
-2.4668036 0 2.993
-2.468128 0 3.0120001
-2.457051 0 3.016
-2.4451265 0 3.0190001
-2.4331734 0 3.0220001
-2.4227924 0 3.0270002
-2.4115684 0 3.0310001
-2.3916063 0 3.0240002
-2.3811443 0 3.029
-2.3690722 0 3.0320001
-2.3771629 0 3.0610001
-2.3757155 0 3.0780001
-2.3633676 0 3.0810001
-2.3532777 0 3.0870001
-2.340858 0 3.0900002
-2.3238931 0 3.0870001
-2.3129411 0 3.0920002
-2.3019412 0 3.0970001
-2.286463 0 3.0960002
-2.2709939 0 3.095
-2.2584505 0 3.098
-2.2451544 0 3.1000001
-2.2311196 0 3.1010001
-2.215646 0 3.1000001
-2.199472 0 3.098
-2.1924846 0 3.1090002
-2.1980004 0 3.1380002
-2.1844568 0 3.1400001
-2.191622 0 3.1720002
-2.1792698 0 3.1760001
-2.1777821 0 3.1960001
-2.1767807 0 3.2170002
-2.1634853 0 3.2200003
-2.1541641 0 3.2290001
-2.1407831 0 3.2320001
-2.1359224 0 3.2480001
-2.1250339 0 3.2550001
-2.1127825 0 3.2600002
-2.1011267 0 3.2660003
-2.0881369 0 3.2700002
-2.0757425 0 3.2750001
-2.0752528 0 3.2990003
-2.0614245 0 3.302
-2.0624363 0 3.3290002
-2.0705686 0 3.3680003
-2.0551491 0 3.3690002
-2.0421407 0 3.3740001
-2.0368915 0 3.3920002
-2.0225348 0 3.3950002
-2.0081496 0 3.3980002
-1.9943218 0 3.4020002
-1.9792933 0 3.404
-1.9648223 0 3.4070001
-1.9503227 0 3.4100001
-1.9363619 0 3.4140003
-1.9246128 0 3.4220002
-1.9139026 0 3.4320002
-1.9119438 0 3.4580002
-1.8943895 0 3.4560001
-1.8795712 0 3.4590001
-1.8641856 0 3.4610002
-1.8498489 0 3.4650002
-1.8344157 0 3.4670002
-1.818439 0 3.4680002
-1.8034923 0 3.4710002
-1.7885168 0 3.4740002
-1.7735127 0 3.4770002
-1.7599963 0 3.4830003
-1.7574346 0 3.5110002
-1.7427075 0 3.5150001
-1.7308884 0 3.5250001
-1.7155703 0 3.5280001
-1.7060019 0 3.5430002
-1.6900927 0 3.5450001
-1.6741647 0 3.5470002
-1.6666278 0 3.5670002
-1.655663 0 3.5800002
-1.640913 0 3.5850003
-1.6270212 0 3.5920002
-1.6148555 0 3.6030002
-1.5981507 0 3.6040001
-1.5959131 0 3.6380002
-1.574693 0 3.6290002
-1.5775915 0 3.6760001
-1.5579741 0 3.6710002
-1.5631627 0 3.7250001
-1.5462638 0 3.7270002
-1.5420595 0 3.7600002
-1.5241641 0 3.7600002
-1.5234946 0 3.8030002
-1.5137073 0 3.8240001
-1.4955072 0 3.8240001
-1.4773073 0 3.8240001
-1.4591074 0 3.8240001
-1.4491971 0 3.8460002
-1.4390775 0 3.8680003
-1.4291157 0 3.8910003
-1.4185723 0 3.9130001
-1.3999488 0 3.9130001
-1.3813251 0 3.9130001
-1.3627015 0 3.9130001
-1.3519783 0 3.9360001
-1.3332452 0 3.9360001
-1.3145123 0 3.9360001
-1.303351 0 3.9590001
-1.2922955 0 3.9830003
-1.2806916 0 4.006
-1.2691839 0 4.0300002
-1.2500035 0 4.0300002
-1.2384584 0 4.0550003
-1.219159 0 4.0550003
-1.1998595 0 4.0550003
-1.1805602 0 4.0550003
-1.1681337 0 4.079
-1.14872 0 4.079
-1.1293064 0 4.079
-1.1166954 0 4.1040001
-1.0971627 0 4.1040001
-1.07763 0 4.1040001
-1.064543 0 4.1290002
-1.0448914 0 4.1290002
-1.0316956 0 4.1550002
-1.0119203 0 4.1550002
-0.98593652 0 4.1290002
-0.96628499 0 4.1290002
-0.94663334 0 4.1290002
-0.92698169 0 4.1290002
-0.91304356 0 4.1550002
-0.89326817 0 4.1550002
-0.87349278 0 4.1550002
-0.85885412 0 4.1800003
-0.84437895 0 4.2070003
-0.82945073 0 4.2330003
-0.81446624 0 4.2600002
-0.80425835 0 4.3140001
-0.78881299 0 4.342
-0.77327806 0 4.3710003
-0.75247473 0 4.3710003
-0.73167133 0 4.3710003
-0.71086794 0 4.3710003
-0.6854862 0 4.342
-0.66482085 0 4.342
-0.64000154 0 4.3140001
-0.6194694 0 4.3140001
-0.60282475 0 4.342
-0.58215934 0 4.342
-0.5652442 0 4.3710003
-0.54444081 0 4.3710003
-0.52699178 0 4.3990002
-0.50605512 0 4.3990002
-0 -0 0
-0 -0 0
-0 -0 0
-0 -0 0
-0 -0 0
-0 -0 0
-0 -0 0
-0 -0 0
-0 -0 0
-0.12854934 0 1.9060001
-0.1193525 0 1.904
-0.11017475 0 1.9020001
-0.10096284 0 1.899
-0.091876321 0 1.8980001
-0.082799308 0 1.8970001
-0.073809594 0 1.8980001
-0.064844482 0 1.9000001
-0.055919077 0 1.904
-0.0469556 0 1.9080001
-0.037954044 0 1.9120001
-0.028974777 0 1.9200001
-0.020115661 0 1.9470001
-0.010854659 0 1.9480001
-0.0015898271 0 1.9560001
0.0077432618 0 1.9620001
0.017124757 0 1.9670001
0.026540382 0 1.9710001
0.036030531 0 1.9770001
0.045531824 0 1.9810001
0.055071194 0 1.9850001
0.064648636 0 1.9890001
0.074226893 0 1.9920001
0.083707646 0 1.9920001
0.093188398 0 1.9920001
0.10251451 0 1.9890001
0.11175579 0 1.9850001
0.12095898 0 1.9810001
0.12999247 0 1.9750001
0.13896883 0 1.9690001
0.14788808 0 1.9630001
0.15675023 0 1.9570001
0.16555525 0 1.9510001
0.17430317 0 1.9450001
0.18308835 0 1.9400001
0.1917268 0 1.9340001
0.20041203 0 1.9290001
0.20904967 0 1.9240001
0.21741289 0 1.9170001
0.22582765 0 1.9110001
0.23455407 0 1.9080001
0.24197505 0 1.8950001
0.24966964 0 1.8850001
0.25713179 0 1.8740001
0.26519912 0 1.868
0.27306262 0 1.8610001
0.2802535 0 1.8500001
0.28796467 0 1.8430001
0.29560924 0 1.8360001
0.30252406 0 1.825
0.3100163 0 1.8180001
0.31761721 0 1.812
0.32516101 0 1.8060001
0.33246288 0 1.7990001
0.34007722 0 1.794
0.34744969 0 1.7880001
0.354765 0 1.7820001
0.36365396 0 1.784
0.37110174 0 1.779
0.37551486 0 1.7600001
0.38258272 0 1.7540001
0.38959345 0 1.748
0.3956365 0 1.738
0.40228158 0 1.7310001
0.40909716 0 1.725
0.41609755 0 1.72
0.4228037 0 1.7140001
0.42945269 0 1.7080001
0.43553224 0 1.7
0.44153556 0 1.692
0.44772848 0 1.6850001
0.45385483 0 1.6780001
0.459364 0 1.669
0.46562755 0 1.6630001
0.47211868 0 1.6580001
0.47885171 0 1.654
0.48613524 0 1.6520001
0.49369875 0 1.651
0.50216413 0 1.6530001
0.51064855 0 1.6550001
0.51977855 0 1.659
0.5289467 0 1.6630001
0.54008991 0 1.6730001
0.55362135 0 1.6900001
0.56631762 0 1.7040001
0.57274216 0 1.6990001
0.58253771 0 1.7040001
0.59272742 0 1.71
0.60086608 0 1.71
0.62004507 0 1.7410001
0.63446659 0 1.7580001
0.65197521 0 1.7830001
0.65823865 0 1.7770001
0.67832673 0 1.8080001
0.69149107 0 1.8200001
0.70246136 0 1.8260001
0.70959419 0 1.8220001
0.72063118 0 1.8280001
0.73970479 0 1.8540001
0.7602371 0 1.8830001
0.77900302 0 1.9070001
0.79882389 0 1.9330001
0.82307243 0 1.9690001
0.83413476 0 1.973
0.84609026 0 1.9790001
0.8593998 0 1.988
0.87366909 0 1.9990001
0.88495034 0 2.003
0.91056007 0 2.039
0.92206979 0 2.043
0.94547611 0 2.0730002
0.9511947 0 2.0640001
0.97358954 0 2.0910001
0.98636371 0 2.0970001
1.0129738 0 2.1320002
1.0375174 0 2.1620002
1.0613773 0 2.1900001
1.0835462 0 2.214
1.1049552 0 2.2360001
1.1305649 0 2.266
1.1640157 0 2.3110001
1.2060299 0 2.3720002
1.2486244 0 2.4330001
1.2804047 0 2.4720001
1.3109881 0 2.5080001
1.3466613 0 2.5530002
1.3816985 0 2.5960002
1.396202 0 2.6000001
1.4134521 0 2.6090002
1.4253229 0 2.608
1.4377356 0 2.608
1.4384712 0 2.5870001
1.4496622 0 2.585
1.4608343 0 2.5830002
1.4731277 0 2.5830002
1.4842712 0 2.5810001
1.494236 0 2.5770001
1.5059162 0 2.5760002
1.5116936 0 2.5650001
1.5215251 0 2.5610001
1.5349116 0 2.5630002
1.5452992 0 2.5600002
1.5294973 0 2.5140002
1.5408491 0 2.513
1.5515739 0 2.5110002
1.5635247 0 2.5110002
1.5754756 0 2.5110002
1.5880586 0 2.5120001
1.628677 0 2.5570002
1.6427718 0 2.5600002
1.6568954 0 2.5630002
1.6788622 0 2.5780001
1.685884 0 2.5700002
1.7185988 0 2.6010001
1.7329746 0 2.6040001
1.745368 0 2.6040001
1.7537113 0 2.598
1.7538403 0 2.5800002
1.7668041 0 2.5810001
1.753584 0 2.5440001
1.7594454 0 2.5350001
1.7589318 0 2.5170002
1.7716148 0 2.5180001
1.7807657 0 2.5140002
1.79487 0 2.5170002
1.804696 0 2.5140002
1.813048 0 2.5090001
1.8235346 0 2.5070002
1.8325378 0 2.503
0 -0 0
0 -0 0
0 -0 0
0 -0 0
0 -0 0
0 -0 0
0 -0 0
0 -0 0
0 -0 0
0 -0 0
0 -0 0
0 -0 0
0 -0 0
0 -0 0
0 -0 0
0 -0 0
0 -0 0
0 -0 0
0 -0 0
0 -0 0
0 -0 0
0 -0 0
0 -0 0
0 -0 0
0 -0 0
0 -0 0
0 -0 0
0 -0 0
0 -0 0
0 -0 0
0 -0 0
0 -0 0
0 -0 0
0 -0 0
0 -0 0
0 -0 0
0 -0 0
0 -0 0
0 -0 0
0 -0 0
0 -0 0
0 -0 0
0 -0 0
0 -0 0
0 -0 0
0 -0 0
0 -0 0
0 -0 0
0 -0 0
0 -0 0
0 -0 0
0 -0 0
0 -0 0
0 -0 0
-0 -0 0
-0 -0 0
-0 -0 0
-0 -0 0
-0 -0 0
-0 -0 0
-0 -0 0
-0 -0 0
-0 -0 0
-2.316735 0 2.3610001
-2.3054979 0 2.3610001
-2.2962046 0 2.3630002
-2.3265378 0 2.4060001
-2.357424 0 2.45
-2.3448062 0 2.4490001
-2.3312449 0 2.447
-2.3243384 0 2.4520001
-2.3164411 0 2.4560001
-2.3066287 0 2.4580002
-2.2977312 0 2.4610002
-2.2878759 0 2.4630001
-2.2900157 0 2.4780002
-2.2828186 0 2.483
-2.2755742 0 2.4880002
-2.2755609 0 2.5010002
-2.2699933 0 2.5080001
-2.2580569 0 2.5080001
-2.2514937 0 2.5140002
-2.2386374 0 2.513
-2.2576895 0 2.5480001
-2.2482064 0 2.5510001
-2.2711267 0 2.5910001
-2.2840772 0 2.6200001
-2.298485 0 2.651
-2.3212209 0 2.6920002
-2.346139 0 2.7360001
-2.3714907 0 2.7810001
-2.3981102 0 2.8280001
-2.4403038 0 2.8940001
-2.4500072 0 2.9220002
-2.4744508 0 2.9680002
-2.4868512 0 3.0000002
-2.4750457 0 3.0030003
-2.4591143 0 3.0010002
-2.4529779 0 3.0110002
-2.4410772 0 3.0140002
-2.4299529 0 3.0180001
-2.4187903 0 3.0220001
-2.4083858 0 3.0270002
-2.3947699 0 3.0280001
-2.3835027 0 3.0320001
-2.3690722 0 3.0320001
-2.3569715 0 3.0350001
-2.3618226 0 3.0600002
-2.3518615 0 3.0660002
-2.3509908 0 3.0840001
-2.3340399 0 3.0810001
-2.3216348 0 3.0840001
-2.311445 0 3.0900002
-2.2997112 0 3.0940001
-2.286463 0 3.0960002
-2.2717278 0 3.0960002
-2.2577214 0 3.0970001
-2.2451544 0 3.1000001
-2.2318392 0 3.1020002
-2.215646 0 3.1000001
-2.2243209 0 3.1330001
-2.1953053 0 3.1130002
-2.2071064 0 3.1510003
-2.1914136 0 3.1500001
-2.1992221 0 3.1830001
-2.1840727 0 3.1830001
-2.1920917 0 3.2170002
-2.1788106 0 3.2200003
-2.1702042 0 3.2300003
-2.1554985 0 3.2310002
-2.1427703 0 3.2350001
-2.1346071 0 3.2460001
-2.1237283 0 3.2530003
-2.1114862 0 3.2580001
-2.0998402 0 3.2640002
-2.0874982 0 3.2690001
-2.074475 0 3.2730002
-2.075882 0 3.3000002
-2.0620489 0 3.3030002
-2.063056 0 3.3300002
-2.0705686 0 3.3680003
