# .PCD v0.7 - Point Cloud Data file format
VERSION 0.7
FIELDS x y z
SIZE 4 4 4
TYPE F F F
COUNT 1 1 1
WIDTH 1750
HEIGHT 1
VIEWPOINT 0 0 0 1 0 0 0
POINTS 1750
DATA ascii
1.1923018 -0.80773258 2.345
1.2291228 -0.82495511 2.3950002
1.2721173 -0.84596646 2.4560001
1.3141245 -0.8659445 2.5140002
1.3440238 -0.87765574 2.5480001
1.380634 -0.89350039 2.5940001
1.3924429 -0.89315599 2.5930002
1.4091181 -0.89591151 2.6010001
1.42423 -0.89763379 2.6060002
1.436633 -0.89763379 2.6060002
1.4379152 -0.89074481 2.5860002
1.4491014 -0.89005589 2.5840001
1.4608343 -0.8897115 2.5830002
1.4725573 -0.88936698 2.582
1.4831212 -0.88833368 2.5790002
1.4930762 -0.88695586 2.575
1.5035778 -0.88592249 2.572
1.510515 -0.88282251 2.5630002
1.5203369 -0.88144463 2.559
1.5325161 -0.88144463 2.559
1.5428847 -0.88041139 2.5560002
1.5276721 -0.86491114 2.5110002
1.5390098 -0.86456674 2.5100002
1.54972 -0.86387777 2.5080001
1.5616567 -0.86387777 2.5080001
1.5742207 -0.86422223 2.5090001
1.5867944 -0.86456674 2.5100002
1.5987405 -0.86456674 2.5100002
1.64213 -0.88144463 2.559
1.6568954 -0.88282251 2.5630002
1.6730011 -0.88488913 2.569
1.684572 -0.88454473 2.5680001
1.6974549 -0.88488913 2.569
1.7103475 -0.88523364 2.5700002
1.7219087 -0.88488913 2.569
1.7280606 -0.88178915 2.5600002
1.7402447 -0.88178915 2.5600002
1.7455833 -0.87834466 2.5500002
1.7494482 -0.87421125 2.5380001
1.7587514 -0.87283349 2.5340002
1.7582328 -0.86663336 2.516
1.7765398 -0.86973339 2.5250001
1.7807657 -0.8659445 2.5140002
1.7905914 -0.86491114 2.5110002
1.8011066 -0.86422223 2.5090001
1.8101575 -0.86284447 2.5050001
1.8206249 -0.8621555 2.503
1.8296093 -0.86077774 2.4990001
1.8370817 -0.858711 2.493
1.8452388 -0.85698885 2.4880002
1.8600657 -0.85836661 2.4920001
0 -0 0
0 -0 0
0 -0 0
0 -0 0
0 -0 0
0 -0 0
0 -0 0
0 -0 0
0 -0 0
0 -0 0
0 -0 0
0 -0 0
0 -0 0
0 -0 0
0 -0 0
0 -0 0
0 -0 0
0 -0 0
0 -0 0
0 -0 0
0 -0 0
0 -0 0
0 -0 0
0 -0 0
0 -0 0
0 -0 0
0 -0 0
0 -0 0
0 -0 0
0 -0 0
0 -0 0
0 -0 0
0 -0 0
0 -0 0
0 -0 0
0 -0 0
0 -0 0
0 -0 0
0 -0 0
0 -0 0
0 -0 0
0 -0 0
0 -0 0
0 -0 0
0 -0 0
0 -0 0
0 -0 0
0 -0 0
0 -0 0
0 -0 0
0 -0 0
-0 -0 0
-0 -0 0
-0 -0 0
-0 -0 0
-0 -0 0
-0 -0 0
-0 -0 0
-0 -0 0
-0 -0 0
-0 -0 0
-0 -0 0
-0 -0 0
-0 -0 0
-0 -0 0
-0 -0 0
-0 -0 0
-0 -0 0
-0 -0 0
-2.302875 -0.83359796 2.4540002
-2.3014657 -0.83733451 2.4650002
-2.2953072 -0.83937263 2.4710002
-2.2881672 -0.84107107 2.4760001
-2.2800603 -0.84242982 2.48
-2.2700865 -0.84310919 2.4820001
-2.2509947 -0.84039176 2.4740002
-2.2401249 -0.84073138 2.4750001
-2.2283456 -0.84073138 2.4750001
-2.2165658 -0.84073138 2.4750001
-2.205677 -0.84107107 2.4760001
-2.2160447 -0.8495633 2.5010002
-2.2200046 -0.85567772 2.5190001
-2.2202873 -0.8604334 2.5330002
-2.2396159 -0.87266213 2.569
-2.2525327 -0.88251317 2.598
-2.2677603 -0.89338326 2.6300001
-2.3066936 -0.9137646 2.6900001
-2.3407919 -0.93244755 2.7450001
-2.3760624 -0.95180982 2.802
-2.3947694 -0.96471804 2.8400002
-2.4223378 -0.98136282 2.8890002
-2.4461048 -0.99664891 2.9340003
-2.4304826 -0.99596947 2.9320002
-2.4577377 -1.0129539 2.9820001
-2.4550169 -1.0177096 2.9960001
-2.4448311 -1.019408 3.0010002
-2.4337878 -1.0207667 3.0050001
-2.4162652 -1.019408 3.0010002
-2.4051838 -1.0207667 3.0050001
-2.3940642 -1.0221255 3.0090001
-2.3805342 -1.0224652 3.0100002
-2.3795722 -1.02824 3.0270002
-2.3729792 -1.0316368 3.0370002
-2.3616312 -1.0329956 3.0410001
-2.3487015 -1.0336751 3.0430002
-2.347259 -1.0394497 3.0600002
-2.3479414 -1.0462435 3.0800002
-2.3355551 -1.0472625 3.0830002
-2.3178709 -1.0459038 3.0790002
-2.3106968 -1.0493008 3.0890002
-2.3004546 -1.0513388 3.095
-2.2879398 -1.0523579 3.098
-2.2724614 -1.0520182 3.0970001
-2.2584505 -1.0523579 3.098
-2.2451544 -1.0530373 3.1000001
-2.2318392 -1.0537167 3.1020002
-2.2406614 -1.0649265 3.1350002
-2.2250307 -1.0645868 3.1340001
-2.2362075 -1.0771552 3.1710002
-2.2218156 -1.077495 3.1720002
-2.2053275 -1.0768155 3.1700001
-2.21995 -1.0914222 3.2130001
-2.2039719 -1.0910825 3.2120001
-2.1914103 -1.0924412 3.2160001
-2.1808405 -1.0948191 3.223
-2.1702042 -1.0971969 3.2300003
-2.1568327 -1.0982159 3.233
-2.1434326 -1.0992351 3.2360001
-2.1339495 -1.1022923 3.2450001
-2.1224225 -1.1043304 3.2510002
-2.1101899 -1.1060288 3.256
-2.0991967 -1.1084067 3.2630002
-2.0868597 -1.1101052 3.2680001
-2.0738411 -1.1114639 3.2720001
-2.075882 -1.1209751 3.3000002
-2.0626731 -1.1223339 3.3040001
-2.0636754 -1.1315055 3.3310001
-2.069339 -1.1433947 3.3660002
-2.055759 -1.1447535 3.3700001
-2.045167 -1.1478107 3.3790002
-2.0332885 -1.1501884 3.3860002
-2.019556 -1.1515472 3.3900001
-2.0057855 -1.1529059 3.3940001
-1.9908046 -1.1535853 3.3960001
-1.9752231 -1.1539251 3.3970001
-1.9602088 -1.1546044 3.3990002
-1.9457473 -1.1556236 3.4020002
-1.9306901 -1.1563028 3.404
-1.9246128 -1.1624173 3.4220002
-1.9150181 -1.1664937 3.4340003
-1.9113909 -1.1743065 3.4570003
-1.8965822 -1.1753255 3.4600003
-1.8817446 -1.1763445 3.4630001
-1.86634 -1.1770239 3.4650002
-1.8509166 -1.1777034 3.4670002
-1.8349447 -1.178043 3.4680002
-1.8189633 -1.1783826 3.4690001
-1.8029728 -1.1787224 3.4700003
-1.7874871 -1.1794018 3.4720001
-1.7719826 -1.1800811 3.4740002
-1.7655547 -1.186875 3.4940002
-1.7554324 -1.1912909 3.5070002
-1.7402285 -1.19231 3.5100002
-1.738254 -1.2025007 3.5400002
-1.7218919 -1.2028403 3.5410001
-1.7064834 -1.2038594 3.5440001
-1.6905695 -1.2045388 3.5460002
-1.6793566 -1.2086151 3.5580001
-1.6633571 -1.2092944 3.5600002
-1.6542757 -1.2150692 3.5770001
-1.6386244 -1.2160882 3.5800002
-1.6324567 -1.2242408 3.6040001
-1.6170965 -1.2255995 3.6080003
-1.5968205 -1.2232217 3.6010001
-1.5862621 -1.228317 3.6160002
-1.5799 -1.2368094 3.6410003
-1.5608543 -1.2354505 3.6370001
-1.5524569 -1.242584 3.6580002
-1.5518324 -1.2561716 3.6980002
-1.5462638 -1.2660226 3.7270002
-1.5289356 -1.2663623 3.7280002
-1.5326766 -1.2843658 3.7810001
-1.5234946 -1.291839 3.8030002
-1.5053946 -1.291839 3.8030002
-1.4955072 -1.2989725 3.8240001
-1.4773073 -1.2989725 3.8240001
-1.4591074 -1.2989725 3.8240001
-1.4491971 -1.3064456 3.8460002
-1.4308923 -1.3064456 3.8460002
-1.420668 -1.3139188 3.8680003
-1.4022586 -1.3139188 3.8680003
-1.3920779 -1.3217317 3.8910003
-1.373559 -1.3217317 3.8910003
-1.3627015 -1.3292048 3.9130001
-1.3440781 -1.3292048 3.9130001
-1.3254544 -1.3292048 3.9130001
-1.3145123 -1.3370177 3.9360001
-1.303351 -1.3448305 3.9590001
-1.2922955 -1.3529831 3.9830003
-1.2806916 -1.3607959 4.006
-1.2616254 -1.3607959 4.006
-1.2500035 -1.3689485 4.0300002
-1.2384584 -1.3774408 4.0550003
-1.219159 -1.3774408 4.0550003
-1.1998595 -1.3774408 4.0550003
-1.1805602 -1.3774408 4.0550003
-1.1612608 -1.3774408 4.0550003
-1.14872 -1.3855932 4.079
-1.136228 -1.3940854 4.1040001
-1.1166954 -1.3940854 4.1040001
-1.0971627 -1.3940854 4.1040001
-1.0841947 -1.4025778 4.1290002
-1.0712464 -1.4114096 4.1550002
-1.051471 -1.4114096 4.1550002
-1.0379032 -1.419902 4.1800003
-1.0180088 -1.419902 4.1800003
-0.99811453 -1.419902 4.1800003
-0.97822022 -1.419902 4.1800003
-0.95259422 -1.4114096 4.1550002
-0.93281883 -1.4114096 4.1550002
-0.91304356 -1.4114096 4.1550002
-0.89864284 -1.419902 4.1800003
-0.87874848 -1.419902 4.1800003
-0.86440176 -1.4290736 4.2070003
-0.84437895 -1.4290736 4.2070003
-0.83474135 -1.447077 4.2600002
-0.8196283 -1.4562486 4.2870002
-0.80425835 -1.4654202 4.3140001
-0.78881299 -1.4749315 4.342
-0.77327806 -1.4847826 4.3710003
-0.75247473 -1.4847826 4.3710003
-0.73167133 -1.4847826 4.3710003
-0.71086794 -1.4847826 4.3710003
-0.6854862 -1.4749315 4.342
-0.66053367 -1.4654202 4.3140001
-0.64000154 -1.4654202 4.3140001
-0.6194694 -1.4654202 4.3140001
-0.59893733 -1.4654202 4.3140001
-0.58215934 -1.4749315 4.342
-0.5652442 -1.4847826 4.3710003
-0.54792839 -1.4942939 4.3990002
-0.5304659 -1.5041448 4.428
-0.50939125 -1.5041448 4.428
-0 -0 0
-0 -0 0
-0 -0 0
-0 -0 0
-0 -0 0
-0 -0 0
-0 -0 0
-0 -0 0
-0 -0 0
-0.12881911 -0.64880687 1.9100001
-0.11947788 -0.64744812 1.9060001
-0.11029059 -0.64676869 1.904
-0.10106918 -0.64574969 1.9010001
-0.091973133 -0.64540994 1.9000001
-0.082886599 -0.64507025 1.899
-0.073926255 -0.64574969 1.9010001
-0.064912736 -0.64608932 1.9020001
-0.055948447 -0.64710838 1.9050001
-0.047004819 -0.64880687 1.9100001
-0.037993744 -0.65016556 1.914
-0.028989868 -0.65254343 1.9210001
-0.020146655 -0.6623944 1.95
-0.010893663 -0.66409284 1.955
-0.001586576 -0.66307384 1.9520001
0.0077432618 -0.66647071 1.9620001
0.017133463 -0.66850883 1.9680001
0.026540382 -0.66952789 1.9710001
0.036012307 -0.67122632 1.9760001
0.045531824 -0.67292482 1.9810001
0.055071194 -0.67428356 1.9850001
0.064648636 -0.67564231 1.9890001
0.074189633 -0.67632169 1.9910001
0.083707646 -0.67666137 1.9920001
0.093141608 -0.67632169 1.9910001
0.10251451 -0.67564231 1.9890001
0.11175579 -0.67428356 1.9850001
0.12095898 -0.67292482 1.9810001
0.13005827 -0.67122632 1.9760001
0.13903941 -0.66918826 1.9700001
0.14803877 -0.66748977 1.9650002
0.15691042 -0.66545165 1.9590001
0.16580983 -0.66375321 1.9540001
0.17466164 -0.66205472 1.9490001
0.18346585 -0.66035628 1.9440001
0.19251989 -0.65967691 1.9420002
0.20134708 -0.65831816 1.9380001
0.20991889 -0.65627998 1.932
0.2175263 -0.65152436 1.9180001
0.22582765 -0.64914656 1.9110001
0.23369355 -0.64574969 1.9010001
0.24031506 -0.63929552 1.8820001
0.24874249 -0.63793683 1.8780001
0.25658298 -0.63521928 1.8700001
0.26448926 -0.63284141 1.863
0.27232897 -0.6304636 1.8560001
0.2799505 -0.62774611 1.848
0.28765216 -0.6253683 1.8410001
0.29528722 -0.62299043 1.8340001
0.30219251 -0.61925387 1.8230001
0.30967525 -0.61687607 1.8160001
0.31726664 -0.61483788 1.8100001
0.32480094 -0.61279976 1.8040001
0.33246288 -0.61110133 1.7990001
0.33988768 -0.60906321 1.7930001
0.34744969 -0.60736471 1.7880001
0.354765 -0.60532659 1.7820001
0.36161554 -0.6026091 1.774
0.36901572 -0.6009106 1.7690001
0.37551486 -0.59785342 1.7600001
0.38280085 -0.59615499 1.7550001
0.38937059 -0.59343749 1.7470001
0.39609179 -0.59105968 1.7400001
0.40274638 -0.58868182 1.733
0.4095715 -0.5866437 1.7270001
0.41658142 -0.58494526 1.7220001
0.42354375 -0.58324683 1.7170001
0.42995557 -0.58086896 1.71
0.43604463 -0.5781514 1.702
0.44257942 -0.57611328 1.6960001
0.4474628 -0.57203704 1.6840001
0.45385483 -0.56999892 1.6780001
0.45908877 -0.56660199 1.6680001
0.46506757 -0.56422418 1.6610001
0.47154918 -0.56252575 1.6560001
0.47856221 -0.56150669 1.6530001
0.48554671 -0.56048757 1.6500001
0.4931007 -0.56014788 1.649
0.50125277 -0.56048757 1.6500001
0.50972289 -0.56116694 1.6520001
0.51852536 -0.56218606 1.6550001
0.52735639 -0.56320512 1.6580001
0.5375073 -0.56558293 1.6650001
0.54674202 -0.56694168 1.669
0.56731462 -0.5798499 1.7070001
0.57645029 -0.58086896 1.71
0.58253771 -0.57883084 1.7040001
0.59550041 -0.58358645 1.7180001
0.60016328 -0.58018959 1.7080001
0.61826438 -0.58970088 1.7360001
0.63194025 -0.59479624 1.751
0.6486842 -0.6026091 1.774
0.65823865 -0.60362816 1.7770001
0.6794523 -0.61517757 1.8110001
0.69567043 -0.62197137 1.8310001
0.70707774 -0.62434918 1.8380001
0.7130993 -0.62197137 1.8310001
0.7233907 -0.62333012 1.835
0.74050272 -0.6304636 1.8560001
0.75862217 -0.63827646 1.8790001
0.77614355 -0.64540994 1.9000001
0.79634434 -0.65458155 1.927
0.82014632 -0.66647071 1.9620001
0.8315981 -0.66816914 1.9670001
0.84224248 -0.66918826 1.9700001
0.86112899 -0.67666137 1.9920001
0.87279499 -0.67835981 1.9970001
0.88583404 -0.68107736 2.0050001
0.91011357 -0.69228709 2.0380001
0.91981322 -0.69228709 2.0380001
0.94091517 -0.70077938 2.0630002
0.96133345 -0.70859224 2.0860002
0.98522985 -0.7187829 2.1160002
0.99577105 -0.71912259 2.1170001
1.0272276 -0.73440862 2.1620002
1.0341582 -0.73203081 2.1550002
1.061862 -0.7442596 2.1910002
1.0776733 -0.74799615 2.2020001
1.1034727 -0.7585265 2.233
1.1295671 -0.76905692 2.2640002
1.163512 -0.78468263 2.3100002
1.1724725 -0.78332382 2.306
1.2121871 -0.80234653 2.3620002
1.2493269 -0.81933099 2.4120002
1.288511 -0.83733451 2.4650002
1.324507 -0.85296023 2.5110002
1.3609411 -0.86858594 2.5570002
1.3784809 -0.87198281 2.5670002
1.3896147 -0.87130344 2.5650001
1.4051018 -0.87334156 2.5710001
1.4200947 -0.87504005 2.5760002
1.4362471 -0.87741786 2.5830002
1.4485407 -0.87741786 2.5830002
1.4602686 -0.87707812 2.582
1.4719871 -0.87673843 2.5810001
1.482546 -0.87571937 2.5780001
1.4924964 -0.87436062 2.5740001
1.5024087 -0.87300187 2.5700002
1.5099255 -0.87028432 2.562
1.5191487 -0.86858594 2.5570002
1.5313184 -0.86858594 2.5570002
1.5127029 -0.85126173 2.506
1.525847 -0.85194117 2.5080001
1.5371703 -0.85160148 2.5070002
1.5478663 -0.85092205 2.5050001
1.5604113 -0.85126173 2.506
1.5723383 -0.85126173 2.506
1.5855299 -0.85194117 2.5080001
1.5981034 -0.8522808 2.5090001
1.6113281 -0.85296023 2.5110002
1.6303902 -0.85669678 2.5220001
1.6443472 -0.85771585 2.5250001
1.6576766 -0.85839528 2.5270002
1.6703644 -0.85873491 2.5280001
1.6883858 -0.86179215 2.5370002
1.6977793 -0.8604334 2.5330002
1.7071347 -0.85907459 2.529
1.7164522 -0.85771585 2.5250001
1.7257315 -0.8563571 2.5210001
1.7163616 -0.84582669 2.49
1.7351532 -0.84922361 2.5
1.7470516 -0.84922361 2.5
1.7596539 -0.8495633 2.5010002
1.7750988 -0.85126173 2.506
1.7870258 -0.85126173 2.506
1.7975173 -0.85058242 2.5040002
1.8072671 -0.8495633 2.5010002
1.8169881 -0.84854424 2.4980001
1.8266808 -0.84752518 2.4950001
1.8348709 -0.84582669 2.49
1.8444972 -0.84480768 2.4870002
1.8481231 -0.84107107 2.4760001
1.8606586 -0.84141082 2.4770002
0 -0 0
0 -0 0
0 -0 0
0 -0 0
0 -0 0
0 -0 0
0 -0 0
0 -0 0
0 -0 0
0 -0 0
0 -0 0
0 -0 0
0 -0 0
0 -0 0
0 -0 0
0 -0 0
0 -0 0
0 -0 0
0 -0 0
0 -0 0
0 -0 0
0 -0 0
0 -0 0
0 -0 0
0 -0 0
0 -0 0
0 -0 0
0 -0 0
0 -0 0
0 -0 0
0 -0 0
0 -0 0
0 -0 0
0 -0 0
0 -0 0
0 -0 0
0 -0 0
0 -0 0
0 -0 0
0 -0 0
0 -0 0
0 -0 0
0 -0 0
0 -0 0
0 -0 0
0 -0 0
0 -0 0
0 -0 0
0 -0 0
0 -0 0
-0 -0 0
-0 -0 0
-0 -0 0
-0 -0 0
-0 -0 0
-0 -0 0
-0 -0 0
-0 -0 0
-0 -0 0
-0 -0 0
-0 -0 0
-0 -0 0
-0 -0 0
-0 -0 0
-0 -0 0
-0 -0 0
-0 -0 0
-0 -0 0
-0 -0 0
-0 -0 0
-2.2953072 -0.82761216 2.4710002
-2.2881672 -0.82928681 2.4760001
-2.2782218 -0.82995665 2.4780002
-2.266428 -0.82995665 2.4780002
-2.2491748 -0.82794708 2.4720001
-2.2365046 -0.82761216 2.4710002
-2.2229435 -0.82694227 2.4690001
-2.2013412 -0.8232581 2.4580002
-2.1798432 -0.81957382 2.447
-2.1699693 -0.82024372 2.4490001
-2.1794646 -0.828282 2.473
-2.1773367 -0.83196628 2.4840002
-2.1925397 -0.84234905 2.5150001
-2.2074473 -0.85273188 2.546
-2.2324076 -0.86713392 2.5890002
-2.2569582 -0.88153589 2.6320002
-2.2836578 -0.89694268 2.6780002
-2.3217914 -0.9170385 2.7380002
-2.352608 -0.93445486 2.7900002
-2.371191 -0.94718218 2.8280001
-2.3877449 -0.95923966 2.8640001
-2.4089298 -0.97330672 2.9060001
-2.3959231 -0.97364163 2.9070001
-2.4156845 -0.98737383 2.9480002
-2.4040976 -0.98837858 2.9510002
-2.3932922 -0.98971832 2.9550002
-2.4057982 -1.000771 2.9880002
-2.3947785 -1.0021107 2.9920001
-2.3845167 -1.0037854 2.9970002
-2.381325 -1.0084743 3.0110002
-2.3646359 -1.0074695 3.0080001
-2.3542266 -1.0091443 3.0130002
-2.3593013 -1.0175174 3.0380001
-2.3556478 -1.0222064 3.052
-2.3418894 -1.0225414 3.0530002
-2.3441298 -1.0299098 3.075
-2.3325248 -1.0312496 3.0790002
-2.3201292 -1.0322545 3.0820003
-2.3204215 -1.0389531 3.1020002
-2.3004546 -1.0366085 3.095
-2.2886784 -1.0379483 3.0990002
-2.2930069 -1.0466565 3.1250002
-2.2825074 -1.048666 3.131
-2.2712271 -1.0503407 3.1360002
-2.2563016 -1.0503407 3.1360002
-2.2656767 -1.0617282 3.1700001
-2.2491696 -1.0610584 3.1680002
-2.2608895 -1.0737857 3.2060001
-2.2491331 -1.0754604 3.2110002
-2.2338507 -1.0754604 3.2110002
-2.2164953 -1.0744556 3.2080002
-2.2053442 -1.0764652 3.2140002
-2.1920917 -1.0774699 3.2170002
-2.1815171 -1.0798146 3.2240002
-2.1715479 -1.0824939 3.2320001
-2.1581669 -1.0834987 3.2350001
-2.1440949 -1.0841686 3.2370002
-2.133292 -1.086513 3.2440002
-2.1211169 -1.0881877 3.2490001
-2.1088939 -1.0898623 3.2540002
-2.0985534 -1.0925418 3.2620001
-2.0862212 -1.0942165 3.2670002
-2.0732074 -1.0955561 3.2710001
-2.075882 -1.1052692 3.3000002
-2.0632973 -1.1069437 3.3050001
-2.0649145 -1.1163218 3.3330002
-2.0545843 -1.1193362 3.3420002
-2.0392885 -1.1196711 3.3430002
-2.0457723 -1.1320635 3.3800001
-2.0326879 -1.1337383 3.3850002
-2.0189605 -1.135078 3.3890002
-2.0051947 -1.1364176 3.3930001
-1.9902183 -1.1370876 3.3950002
-1.9752231 -1.1377573 3.3970001
-1.9602088 -1.1384273 3.3990002
-1.9457473 -1.1394321 3.4020002
-1.9306901 -1.1401018 3.404
-1.9246128 -1.1461307 3.4220002
-1.9155756 -1.1504847 3.4350002
-1.910838 -1.1575183 3.4560001
-1.8965822 -1.1588581 3.4600003
-1.8822881 -1.1601977 3.4640002
-1.8674173 -1.1612025 3.4670002
-1.8519843 -1.1618723 3.4690001
-1.8360029 -1.1622072 3.4700003
-1.8200121 -1.1625422 3.4710002
-1.8034923 -1.1625422 3.4710002
-1.7874871 -1.1628771 3.4720001
-1.7714725 -1.1632121 3.473
-1.7736397 -1.1756045 3.5100002
-1.7549319 -1.1742648 3.5060003
-1.7546066 -1.1853175 3.5390003
-1.738745 -1.1859872 3.5410001
-1.7218919 -1.1859872 3.5410001
-1.7040759 -1.1853175 3.5390003
-1.6962905 -1.191681 3.5580001
-1.6798286 -1.1920161 3.5590003
-1.6698984 -1.19704 3.5740001
-1.6547381 -1.1983796 3.5780001
-1.640913 -1.2007242 3.5850003
-1.6229446 -1.2000544 3.5830002
-1.6103735 -1.2034037 3.5930002
-1.5946033 -1.2044084 3.5960002
-1.5867007 -1.211442 3.6170001
-1.5707877 -1.2124468 3.6200001
-1.5587085 -1.216466 3.6320002
-1.5524569 -1.2251742 3.6580002
-1.5392432 -1.2285235 3.6680002
-1.5462638 -1.2482843 3.7270002
-1.5289356 -1.2486192 3.7280002
-1.5241641 -1.2593369 3.7600002
-1.5146813 -1.2663705 3.7810001
-1.496686 -1.2663705 3.7810001
-1.4872946 -1.273739 3.8030002
-1.4691945 -1.273739 3.8030002
-1.4591074 -1.2807724 3.8240001
-1.4409072 -1.2807724 3.8240001
-1.4308923 -1.288141 3.8460002
-1.4125876 -1.288141 3.8460002
-1.4022586 -1.2955095 3.8680003
-1.3838493 -1.2955095 3.8680003
-1.373559 -1.3032129 3.8910003
-1.3550402 -1.3032129 3.8910003
-1.3440781 -1.3105812 3.9130001
-1.3254544 -1.3105812 3.9130001
-1.3145123 -1.3182846 3.9360001
-1.303351 -1.3259881 3.9590001
-1.2922955 -1.3340265 3.9830003
-1.2806916 -1.3417298 4.006
-1.2691839 -1.349768 4.0300002
-1.2500035 -1.349768 4.0300002
-1.230823 -1.349768 4.0300002
-1.219159 -1.3581414 4.0550003
-1.1998595 -1.3581414 4.0550003
-1.1805602 -1.3581414 4.0550003
-1.1612608 -1.3581414 4.0550003
-1.14872 -1.3661796 4.079
-1.136228 -1.3745528 4.1040001
-1.1166954 -1.3745528 4.1040001
-1.0971627 -1.3745528 4.1040001
-1.0841947 -1.3829262 4.1290002
-1.0712464 -1.3916343 4.1550002
-1.051471 -1.3916343 4.1550002
-1.0379032 -1.4000076 4.1800003
-1.0180088 -1.4000076 4.1800003
-0.99811453 -1.4000076 4.1800003
-0.97822022 -1.4000076 4.1800003
-0.95832586 -1.4000076 4.1800003
-0.9384315 -1.4000076 4.1800003
-0.9185372 -1.4000076 4.1800003
-0.89864284 -1.4000076 4.1800003
-0.88442457 -1.4090507 4.2070003
-0.86440176 -1.4090507 4.2070003
-0.84959733 -1.4177589 4.2330003
-0.83474135 -1.426802 4.2600002
-0.8196283 -1.4358451 4.2870002
-0.80425835 -1.4448882 4.3140001
-0.78881299 -1.4542662 4.342
-0.77327806 -1.4639792 4.3710003
-0.75247473 -1.4639792 4.3710003
-0.73167133 -1.4639792 4.3710003
-0.71086794 -1.4639792 4.3710003
-0.6854862 -1.4542662 4.342
-0.66053367 -1.4448882 4.3140001
-0.64000154 -1.4448882 4.3140001
-0.6194694 -1.4448882 4.3140001
-0.59893733 -1.4448882 4.3140001
-0.58215934 -1.4542662 4.342
-0.5652442 -1.4639792 4.3710003
-0.54792839 -1.4733573 4.3990002
-0.52699178 -1.4733573 4.3990002
-0.50939125 -1.4830701 4.428
-0 -0 0
-0 -0 0
-0 -0 0
-0 -0 0
-0 -0 0
-0 -0 0
-0 -0 0
-0 -0 0
-0 -0 0
-0.12861677 -0.63871157 1.9070001
-0.11966594 -0.63938147 1.909
-0.11046437 -0.63871157 1.9070001
-0.10122868 -0.63770682 1.904
-0.092069946 -0.63703692 1.9020001
-0.082973897 -0.63670206 1.9010001
-0.074004032 -0.6373719 1.9030001
-0.064980999 -0.63770682 1.904
-0.055977818 -0.63837671 1.9060001
-0.047029432 -0.64005136 1.9110001
-0.038013596 -0.64139104 1.9150001
-0.028989868 -0.64340061 1.9210001
-0.019991681 -0.64808965 1.9350001
-0.010810081 -0.6497643 1.9400001
-0.0015841376 -0.65277869 1.9490001
0.0077195819 -0.65512317 1.9560001
0.017089933 -0.65746766 1.9630001
0.026526917 -0.65981221 1.9700001
0.035957631 -0.66081697 1.973
0.045531824 -0.66349643 1.9810001
0.055071194 -0.66483617 1.9850001
0.064681143 -0.66651082 1.9900001
0.074226893 -0.66718066 1.9920001
0.083707646 -0.66718066 1.9920001
0.093141608 -0.66684574 1.9910001
0.10251451 -0.66617584 1.9890001
0.11175579 -0.66483617 1.9850001
0.12089793 -0.66316152 1.9800001
0.13005827 -0.66182178 1.9760001
0.13896883 -0.65947729 1.9690001
0.14803877 -0.65813756 1.9650002
0.15699051 -0.65646285 1.96
0.16580983 -0.65445334 1.9540001
0.17475125 -0.6531136 1.95
0.18356022 -0.65143895 1.9450001
0.19281729 -0.65143895 1.9450001
0.20155486 -0.6497643 1.9400001
0.21024485 -0.64808965 1.9350001
0.21741289 -0.64206088 1.9170001
0.22689119 -0.64306569 1.9200001
0.23221835 -0.63268286 1.8890001
0.24018736 -0.63000339 1.881
0.24847758 -0.62832874 1.876
0.25644574 -0.62598425 1.8690001
0.26434731 -0.62363976 1.8620001
0.27232897 -0.62163019 1.8560001
0.2799505 -0.61895072 1.848
0.28765216 -0.61660624 1.8410001
0.2951262 -0.61392677 1.8330001
0.30219251 -0.61057746 1.8230001
0.30950472 -0.60789806 1.8150001
0.31709138 -0.60588849 1.8090001
0.32462087 -0.60387886 1.8030001
0.33227804 -0.6022042 1.7980001
0.33988768 -0.60052961 1.7930001
0.34744969 -0.59885496 1.7880001
0.354765 -0.59684533 1.7820001
0.36141169 -0.593831 1.7730001
0.36901572 -0.59249127 1.7690001
0.37530151 -0.58914196 1.7590001
0.3823646 -0.58713239 1.7530001
0.38937059 -0.58512282 1.7470001
0.39609179 -0.58277828 1.7400001
0.40274638 -0.58043379 1.733
0.40933433 -0.57808924 1.7260001
0.41658142 -0.57674956 1.7220001
0.42329705 -0.57473993 1.7160001
0.42945269 -0.57206053 1.7080001
0.43578845 -0.56971604 1.7010001
0.44127464 -0.56636673 1.6910001
0.4474628 -0.56402224 1.6840001
0.45331389 -0.56134278 1.6760001
0.45881352 -0.55832839 1.6670001
0.46534753 -0.55665374 1.6620001
0.47154918 -0.55464417 1.6560001
0.47827268 -0.55330443 1.6520001
0.48525244 -0.55229962 1.649
0.4928017 -0.55196476 1.6480001
0.50094897 -0.55229962 1.649
0.5091058 -0.5526346 1.6500001
0.51789874 -0.55363941 1.6530001
0.52672023 -0.55464417 1.6560001
0.53557032 -0.55564892 1.659
0.54543167 -0.55765855 1.6650001
0.56698227 -0.57139069 1.7060001
0.57611322 -0.57239544 1.7090001
0.58458889 -0.57273036 1.71
0.59515387 -0.57507491 1.7170001
0.60016328 -0.57206053 1.7080001
0.6175521 -0.5807687 1.7340001
0.63085753 -0.58545768 1.748
0.64758724 -0.59316111 1.771
0.6689809 -0.60488367 1.8060001
0.67982745 -0.60689324 1.812
0.69377071 -0.61158228 1.8260001
0.70823187 -0.61660624 1.8410001
0.7154361 -0.6152665 1.8370001
0.72575605 -0.61660624 1.8410001
0.73930579 -0.62062538 1.853
0.7598334 -0.63033837 1.8820001
0.77410108 -0.63469243 1.8950001
0.7955178 -0.64474034 1.9250001
0.81889224 -0.65612799 1.9590001
0.83032978 -0.65780264 1.9640001
0.84181494 -0.65947729 1.9690001
0.86112899 -0.66718066 1.9920001
0.8723579 -0.66852039 1.9960001
0.89687937 -0.67990804 2.0300002
0.90654105 -0.67990804 2.0300002
0.91800791 -0.68124771 2.0340002
0.9418273 -0.69163054 2.0650001
0.97147208 -0.70603251 2.108
0.98429859 -0.70804214 2.1140001
1.012234 -0.72076946 2.1520002
1.0281777 -0.72478861 2.164
1.0341582 -0.72177428 2.1550002
1.061862 -0.73383176 2.1910002
1.0781628 -0.7378509 2.2030001
1.1000135 -0.74555427 2.2260001
1.1275713 -0.75694185 2.26
1.1393352 -0.75761175 2.2620001
1.172981 -0.77268362 2.3070002
1.1983305 -0.78206164 2.335
1.235342 -0.79880822 2.3850002
1.2728293 -0.81555468 2.4350002
1.3071002 -0.82995665 2.4780002
1.3609411 -0.85641617 2.5570002
1.3747219 -0.85742092 2.5600002
1.3879894 -0.85809076 2.562
1.4040086 -0.86043525 2.569
1.4200947 -0.86277986 2.5760002
1.435135 -0.86445445 2.5810001
1.4479798 -0.86478937 2.582
1.4602686 -0.86478937 2.582
1.4719871 -0.86445445 2.5810001
1.482546 -0.86344963 2.5780001
1.4924964 -0.86210996 2.5740001
1.5024087 -0.86077023 2.5700002
1.4951918 -0.84971756 2.5370002
1.5060781 -0.84904766 2.5350001
1.5157477 -0.84770799 2.5310001
1.5133067 -0.83966964 2.5070002
1.5252385 -0.83966964 2.5070002
1.535944 -0.83899975 2.5050001
1.5472485 -0.83866489 2.5040002
1.5591661 -0.83866489 2.5040002
1.5710835 -0.83866489 2.5040002
1.5836333 -0.83899975 2.5050001
1.6025621 -0.84268397 2.516
1.6138949 -0.84234905 2.5150001
1.6142286 -0.83632034 2.4970002
1.6235079 -0.83498061 2.493
1.6340611 -0.83431077 2.4910002
1.6445953 -0.83364087 2.4890001
1.655776 -0.83330595 2.4880002
1.6736498 -0.83632034 2.4970002
1.6828339 -0.83498061 2.493
1.69198 -0.83364087 2.4890001
1.7024572 -0.8329711 2.4870002
1.7142938 -0.8329711 2.4870002
1.7240484 -0.83196628 2.4840002
1.7358706 -0.83196628 2.4840002
1.7491001 -0.83263606 2.4860001
1.7708488 -0.8373251 2.5
1.7834604 -0.83766007 2.5010002
1.7946458 -0.8373251 2.5
1.8043767 -0.83632034 2.4970002
1.8140787 -0.83531559 2.4940002
1.8237523 -0.83431077 2.4910002
1.8326604 -0.8329711 2.4870002
1.8422722 -0.83196628 2.4840002
1.8526015 -0.83129638 2.4820001
1.8621609 -0.83029157 2.4790001
1.8641324 -0.82593751 2.4660001
0 -0 0
0 -0 0
0 -0 0
0 -0 0
0 -0 0
0 -0 0
0 -0 0
0 -0 0
0 -0 0
0 -0 0
0 -0 0
0 -0 0
0 -0 0
0 -0 0
0 -0 0
0 -0 0
0 -0 0
0 -0 0
0 -0 0
0 -0 0
0 -0 0
0 -0 0
0 -0 0
0 -0 0
0 -0 0
0 -0 0
0 -0 0
0 -0 0
0 -0 0
0 -0 0
0 -0 0
0 -0 0
0 -0 0
0 -0 0
0 -0 0
0 -0 0
0 -0 0
0 -0 0
0 -0 0
0 -0 0
0 -0 0
0 -0 0
0 -0 0
0 -0 0
0 -0 0
0 -0 0
0 -0 0
0 -0 0
0 -0 0
-0 -0 0
-0 -0 0
-0 -0 0
-0 -0 0
-0 -0 0
-0 -0 0
-0 -0 0
-0 -0 0
-0 -0 0
-0 -0 0
-0 -0 0
-0 -0 0
-0 -0 0
-0 -0 0
-0 -0 0
-0 -0 0
-0 -0 0
-0 -0 0
-0 -0 0
-0 -0 0
-2.2302842 -0.79273969 2.401
-2.2881672 -0.8175025 2.4760001
-2.2773025 -0.81783271 2.4770002
-2.2645986 -0.8175025 2.4760001
-2.2482653 -0.81585169 2.4710002
-2.2337892 -0.81486118 2.4680002
-2.219342 -0.81387067 2.4650002
-2.1995499 -0.81089908 2.4560001
-2.1771708 -0.80693704 2.444
-2.1602225 -0.80495608 2.4380002
-2.1477377 -0.80462587 2.437
-2.1694477 -0.81717235 2.4750001
-2.1515658 -0.81486118 2.4680002
-2.1753674 -0.82839811 2.5090001
-2.1918809 -0.83929378 2.5420001
-2.2149403 -0.85283083 2.5830002
-2.2367566 -0.86603761 2.6230001
-2.26752 -0.88287628 2.674
-2.293582 -0.89806414 2.72
-2.3091443 -0.90928996 2.7540002
-2.3285515 -0.92216665 2.7930002
-2.3442717 -0.93372256 2.8280001
-2.3505929 -0.9416467 2.8520002
-2.3673379 -0.95386302 2.8890002
-2.3772135 -0.96343797 2.9180002
-2.3641355 -0.96376812 2.9190001
-2.3840592 -0.97763532 2.9610002
-2.371567 -0.97829562 2.9630001
-2.3598521 -0.97928613 2.9660001
-2.3797431 -0.99348342 3.0090001
-2.3614914 -0.99183261 3.0040002
-2.348757 -0.99249291 3.006
-2.3600779 -1.0033885 3.039
-2.3432987 -1.0023981 3.0360003
-2.3403552 -1.0073507 3.0510001
-2.3410804 -1.013954 3.0710001
-2.328737 -1.0149446 3.0740001
-2.3118484 -1.013954 3.0710001
-2.3129411 -1.0208877 3.0920002
-2.2989681 -1.0212178 3.0930002
-2.2886784 -1.0231988 3.0990002
-2.2952082 -1.0327739 3.1280003
-2.2846944 -1.0347548 3.1340001
-2.2726758 -1.0360755 3.1380002
-2.2570212 -1.0357453 3.1370001
-2.2663915 -1.0469712 3.1710002
-2.2527194 -1.0476315 3.1730001
-2.2623 -1.0591874 3.2080002
-2.2505338 -1.0608382 3.2130001
-2.2595911 -1.0723943 3.2480001
-2.2441325 -1.0723943 3.2480001
-2.2273014 -1.0717338 3.2460001
-2.2111712 -1.0714037 3.2450001
-2.1889603 -1.068102 3.2350001
-2.1728916 -1.0677719 3.2340002
-2.158834 -1.0684322 3.2360001
-2.1440949 -1.0687624 3.2370002
-2.1326344 -1.0707434 3.2430003
-2.1198111 -1.0720642 3.2470002
-2.1069496 -1.0733848 3.2510002
-2.0979099 -1.0766865 3.2610002
-2.0855827 -1.0783374 3.2660003
-2.0732074 -1.0799882 3.2710001
-2.0576394 -1.0799882 3.2710001
-2.0639217 -1.0915442 3.3060002
-2.0494261 -1.0922045 3.3080001
-2.0545843 -1.1034304 3.3420002
-2.0386786 -1.1034304 3.3420002
-2.045167 -1.1156466 3.3790002
-2.0320873 -1.1172974 3.3840001
-2.0183647 -1.1186181 3.3880002
-2.0051947 -1.1202689 3.3930001
-1.9908046 -1.1212596 3.3960001
-1.9758047 -1.1219199 3.3980002
-1.9607854 -1.1225802 3.4000001
-1.9468911 -1.1239009 3.404
-1.9323915 -1.1248914 3.4070001
-1.9229255 -1.1288534 3.4190001
-1.9183639 -1.135787 3.4400001
-1.9097322 -1.1404095 3.4540002
-1.896034 -1.1420603 3.4590001
-1.8822881 -1.1437111 3.4640002
-1.8679559 -1.1450318 3.4680002
-1.853052 -1.1460223 3.4710002
-1.8375902 -1.1466826 3.473
-1.8215852 -1.1470128 3.4740002
-1.8040118 -1.1463525 3.4720001
-1.7880019 -1.1466826 3.473
-1.7719826 -1.1470128 3.4740002
-1.774145 -1.1592292 3.5110002
-1.7574346 -1.1592292 3.5110002
-1.7575812 -1.1704549 3.5450001
-1.7412001 -1.1707852 3.5460002
-1.7262684 -1.1721058 3.5500002
-1.71178 -1.1737566 3.5550001
-1.7020116 -1.1787093 3.5700002
-1.6803006 -1.1754075 3.5600002
-1.6708329 -1.1806903 3.5760002
-1.6575129 -1.1833316 3.5840001
-1.6413707 -1.1839919 3.5860002
-1.6233975 -1.1833316 3.5840001
-1.6099254 -1.185973 3.5920002
-1.5946033 -1.1872936 3.5960002
-1.5867007 -1.1942272 3.6170001
-1.5707877 -1.1952177 3.6200001
-1.5574211 -1.1981893 3.6290002
-1.551608 -1.2071038 3.6560001
-1.5388235 -1.2107357 3.6670001
-1.5342321 -1.2209711 3.6980002
-1.5289356 -1.2308762 3.7280002
-1.5111924 -1.2308762 3.7280002
-1.5062687 -1.2414416 3.7600002
-1.4883734 -1.2414416 3.7600002
-1.4786906 -1.2483752 3.7810001
-1.4606954 -1.2483752 3.7810001
-1.4510945 -1.255639 3.8030002
-1.4409072 -1.2625725 3.8240001
-1.4227073 -1.2625725 3.8240001
-1.4125876 -1.2698363 3.8460002
-1.3942829 -1.2698363 3.8460002
-1.3838493 -1.2771001 3.8680003
-1.3654398 -1.2771001 3.8680003
-1.3550402 -1.2846941 3.8910003
-1.3440781 -1.2919577 3.9130001
-1.3254544 -1.2919577 3.9130001
-1.3145123 -1.2995516 3.9360001
-1.303351 -1.3071456 3.9590001
-1.2922955 -1.3150697 3.9830003
-1.2806916 -1.3226635 4.006
-1.2691839 -1.3305877 4.0300002
-1.2500035 -1.3305877 4.0300002
-1.230823 -1.3305877 4.0300002
-1.2116426 -1.3305877 4.0300002
-1.1998595 -1.338842 4.0550003
-1.1805602 -1.338842 4.0550003
-1.1681337 -1.346766 4.079
-1.14872 -1.346766 4.079
-1.136228 -1.3550203 4.1040001
-1.1166954 -1.3550203 4.1040001
-1.0971627 -1.3550203 4.1040001
-1.0841947 -1.3632746 4.1290002
-1.064543 -1.3632746 4.1290002
-1.051471 -1.3718591 4.1550002
-1.0316956 -1.3718591 4.1550002
-1.0119203 -1.3718591 4.1550002
-0.99811453 -1.3801134 4.1800003
-0.97822022 -1.3801134 4.1800003
-0.95832586 -1.3801134 4.1800003
-0.9384315 -1.3801134 4.1800003
-0.92447031 -1.389028 4.2070003
-0.90444744 -1.389028 4.2070003
-0.88442457 -1.389028 4.2070003
-0.86440176 -1.389028 4.2070003
-0.84959733 -1.3976123 4.2330003
-0.83474135 -1.4065269 4.2600002
-0.8196283 -1.4154415 4.2870002
-0.80425835 -1.4243561 4.3140001
-0.78881299 -1.4336009 4.342
-0.77327806 -1.4431759 4.3710003
-0.75247473 -1.4431759 4.3710003
-0.73167133 -1.4431759 4.3710003
-0.71086794 -1.4431759 4.3710003
-0.6854862 -1.4336009 4.342
-0.66053367 -1.4243561 4.3140001
-0.64000154 -1.4243561 4.3140001
-0.6194694 -1.4243561 4.3140001
-0.59893733 -1.4243561 4.3140001
-0.58215934 -1.4336009 4.342
-0.56149399 -1.4336009 4.342
-0.54444081 -1.4431759 4.3710003
-0.52363741 -1.4431759 4.3710003
-0.50283408 -1.4431759 4.3710003
-0 -0 0
-0 -0 0
-0 -0 0
-0 -0 0
-0 -0 0
-0 -0 0
-0 -0 0
-0 -0 0
-0 -0 0
-0.12942611 -0.63359749 1.9190001
-0.11991668 -0.63161647 1.9130001
-0.11063815 -0.63062596 1.9100001
-0.10138817 -0.62963539 1.9070001
-0.092215165 -0.62897509 1.9050001
-0.083104841 -0.62864488 1.904
-0.074081808 -0.62897509 1.9050001
-0.065049253 -0.62930524 1.9060001
-0.056036558 -0.6299656 1.9080001
-0.047054041 -0.63128626 1.9120001
-0.038053297 -0.63293713 1.9170001
-0.029020051 -0.63491815 1.9230001
-0.019971019 -0.63821983 1.9330001
-0.010798937 -0.6398707 1.9380001
-0.0015816991 -0.64251208 1.9460001
0.007707742 -0.64482325 1.9530001
0.017081227 -0.64779484 1.9620001
0.026499985 -0.6497758 1.9680001
0.035939407 -0.65109652 1.9720001
0.045508843 -0.6537379 1.9800001
0.055126682 -0.65604907 1.9870001
0.064713642 -0.65736973 1.9910001
0.074264161 -0.65803009 1.9930001
0.083749667 -0.65803009 1.9930001
0.093188398 -0.65769994 1.9920001
0.10251451 -0.65670943 1.9890001
0.11175579 -0.65538877 1.9850001
0.12089793 -0.6537379 1.9800001
0.12992664 -0.65175688 1.9740001
0.13889824 -0.6497758 1.9680001
0.14796343 -0.64845514 1.9640001
0.15691042 -0.64680433 1.9590001
0.16580983 -0.64515346 1.9540001
0.17484087 -0.64416295 1.9510001
0.18365461 -0.64251208 1.9460001
0.19281729 -0.64218187 1.9450001
0.20165876 -0.64086121 1.9410001
0.21046215 -0.63954055 1.937
0.21741289 -0.63293713 1.9170001
0.22689119 -0.63392764 1.9200001
0.23209544 -0.62336218 1.8880001
0.24018736 -0.62105095 1.881
0.24834514 -0.61906999 1.8750001
0.25630853 -0.61675876 1.868
0.26434731 -0.61477774 1.8620001
0.27218226 -0.61246657 1.8550001
0.2799505 -0.61015534 1.848
0.28765216 -0.60784417 1.8410001
0.29448217 -0.60388213 1.8290001
0.30219251 -0.60190111 1.8230001
0.30950472 -0.59925973 1.8150001
0.31709138 -0.59727871 1.8090001
0.32462087 -0.59529769 1.8030001
0.33227804 -0.59364682 1.7980001
0.33988768 -0.59199595 1.7930001
0.34725535 -0.59001493 1.7870001
0.35496408 -0.58869427 1.7830001
0.36120784 -0.58506238 1.7720001
0.36838993 -0.58308136 1.766
0.37508816 -0.58044004 1.7580001
0.3823646 -0.57878917 1.7530001
0.38937059 -0.57680815 1.7470001
0.39631942 -0.57482708 1.7410001
0.40274638 -0.5721857 1.733
0.40933433 -0.56987453 1.7260001
0.41609755 -0.56789351 1.72
0.42305037 -0.56624264 1.715
0.42869839 -0.56294096 1.705
0.43527606 -0.56095994 1.6990001
0.44153556 -0.55864871 1.692
0.4474628 -0.55600739 1.6840001
0.45358434 -0.55369616 1.677
0.45908877 -0.55072463 1.6680001
0.46534753 -0.54874361 1.6620001
0.47126442 -0.54643244 1.6550001
0.47798315 -0.54511172 1.651
0.4849582 -0.54412127 1.6480001
0.49250263 -0.54379106 1.6470001
0.50034136 -0.54379106 1.6470001
0.50848871 -0.54412127 1.6480001
0.51727211 -0.54511172 1.651
0.52608407 -0.54610223 1.654
0.53460187 -0.54676259 1.6560001
0.54510409 -0.54940397 1.664
0.55235904 -0.54874361 1.6620001
0.57645029 -0.56459177 1.71
0.58424699 -0.56426167 1.7090001
0.59550041 -0.56723315 1.7180001
0.60719097 -0.57053488 1.728
0.6171959 -0.5721857 1.733
0.63230115 -0.57845896 1.7520001
0.64393061 -0.58143049 1.761
0.66824007 -0.59562784 1.8040001
0.67907709 -0.59760886 1.8100001
0.69453055 -0.60355192 1.8280001
0.70938593 -0.60883468 1.8440001
0.71738338 -0.60817432 1.8420001
0.72772712 -0.60949498 1.8460001
0.73930579 -0.61180621 1.853
0.76064086 -0.62204146 1.8840001
0.77287561 -0.62468284 1.8920001
0.79510456 -0.63524836 1.9240001
0.81554812 -0.64416295 1.9510001
0.82737041 -0.64614397 1.9570001
0.84224248 -0.65043616 1.9700001
0.85983211 -0.65670943 1.9890001
0.8714838 -0.65836024 1.9940001
0.89643747 -0.66991621 2.029
0.90788066 -0.67123687 2.033
0.91936189 -0.67255765 2.0370002
0.94866872 -0.68675494 2.0800002
0.97055042 -0.69533938 2.1060002
0.99686998 -0.70689535 2.141
1.0112932 -0.70986688 2.1500001
1.0296031 -0.71547979 2.1670001
1.0408766 -0.71614015 2.1690001
1.0671932 -0.72703576 2.2020001
1.0776733 -0.72703576 2.2020001
1.0990252 -0.73429954 2.2240002
1.1250768 -0.74453479 2.2550001
1.1393352 -0.74684602 2.2620001
1.1724725 -0.76137346 2.306
1.1978173 -0.77061832 2.3340001
1.234306 -0.78679669 2.3830001
1.2717838 -0.80330515 2.4330001
1.3060451 -0.8175025 2.4760001
1.3359257 -0.82872838 2.5100002
1.3741848 -0.84490663 2.559
1.3858223 -0.84457648 2.5580001
1.4034622 -0.84787822 2.5680001
1.4200947 -0.8505196 2.5760002
1.434579 -0.85184026 2.5800002
1.4485407 -0.85283083 2.5830002
1.4608343 -0.85283083 2.5830002
1.4725573 -0.85250056 2.582
1.4831212 -0.85151011 2.5790002
1.4924964 -0.84985924 2.5740001
1.501824 -0.84820837 2.569
1.4951918 -0.83764297 2.5370002
1.5060781 -0.83698261 2.5350001
1.5151489 -0.83533174 2.5300002
1.5145139 -0.82839811 2.5090001
1.525847 -0.82806802 2.5080001
1.5365571 -0.8274076 2.506
1.5472485 -0.8267473 2.5040002
1.5591661 -0.8267473 2.5040002
1.5710835 -0.8267473 2.5040002
1.5830011 -0.8267473 2.5040002
1.6012882 -0.83004904 2.5140002
1.6113281 -0.82905853 2.5110002
1.6200467 -0.8274076 2.506
1.6261129 -0.82443613 2.4970002
1.6340611 -0.82245511 2.4910002
1.6412916 -0.82014394 2.4840002
1.649121 -0.81816286 2.4780002
1.6582338 -0.8168422 2.4740002
1.6679835 -0.81585169 2.4710002
1.6858619 -0.81882316 2.48
1.6990343 -0.81948352 2.4820001
1.7156724 -0.82179475 2.4890001
1.7282126 -0.8221249 2.49
1.7407624 -0.82245511 2.4910002
1.7540252 -0.82311541 2.493
1.7673072 -0.82377577 2.4950001
1.7806081 -0.82443613 2.4970002
1.7917744 -0.82410592 2.4960001
1.8022088 -0.82344562 2.4940002
1.8118966 -0.82245511 2.4910002
1.8215559 -0.8214646 2.4880002
1.8311867 -0.82047409 2.4850001
1.8407888 -0.81948352 2.4820001
1.8511087 -0.81882316 2.48
1.8606586 -0.81783271 2.4770002
1.869424 -0.81651199 2.473
1.8667408 -0.81023878 2.4540002
0 -0 0
0 -0 0
0 -0 0
0 -0 0
0 -0 0
0 -0 0
0 -0 0
0 -0 0
0 -0 0
0 -0 0
0 -0 0
0 -0 0
0 -0 0
0 -0 0
0 -0 0
0 -0 0
0 -0 0
0 -0 0
0 -0 0
0 -0 0
0 -0 0
0 -0 0
0 -0 0
0 -0 0
0 -0 0
0 -0 0
0 -0 0
0 -0 0
0 -0 0
0 -0 0
0 -0 0
0 -0 0
0 -0 0
0 -0 0
0 -0 0
0 -0 0
0 -0 0
0 -0 0
0 -0 0
0 -0 0
0 -0 0
0 -0 0
0 -0 0
0 -0 0
0 -0 0
0 -0 0
0 -0 0
0 -0 0
-0 -0 0
-0 -0 0
-0 -0 0
-0 -0 0
-0 -0 0
-0 -0 0
-0 -0 0
-0 -0 0
-0 -0 0
-0 -0 0
-0 -0 0
-0 -0 0
-0 -0 0
-0 -0 0
-0 -0 0
-0 -0 0
-0 -0 0
-0 -0 0
-0 -0 0
-0 -0 0
-0 -0 0
-2.2197812 -0.78163779 2.4020002
-2.2984478 -0.813528 2.5
-2.285635 -0.81320262 2.4990001
-2.2473552 -0.80376565 2.47
-2.2328839 -0.80278945 2.467
-2.190531 -0.79172546 2.4330001
-2.170891 -0.78879678 2.424
-2.1540096 -0.78684437 2.4180002
-2.1451592 -0.78782052 2.421
-2.1459751 -0.79237634 2.4350002
-2.1527934 -0.79920995 2.4560001
-2.1515658 -0.80311489 2.4680002
-2.1718993 -0.81515509 2.5050001
-2.1772223 -0.82166332 2.5250001
-2.1797826 -0.82719529 2.5420001
-2.2077634 -0.84248966 2.5890002
-2.2140968 -0.84964865 2.6110001
-2.2362425 -0.86299056 2.6520002
-2.2554822 -0.87535614 2.6900001
-2.2726929 -0.88707095 2.7260001
-2.2862451 -0.89748412 2.7580001
-2.3110316 -0.91245306 2.8040001
-2.3271856 -0.92416787 2.8400002
-2.3429971 -0.93588269 2.8760002
-2.3625154 -0.94922447 2.9170001
-2.352658 -0.95085156 2.9220002
-2.371567 -0.9641934 2.9630001
-2.3582609 -0.96451885 2.9640002
-2.3449447 -0.96484429 2.9650002
-2.3599193 -0.97688442 3.0020001
-2.3479757 -0.97786069 3.0050001
-2.3530886 -0.98599601 3.0300002
-2.3432987 -0.98794848 3.0360003
-2.3403552 -0.99282962 3.0510001
-2.3319328 -0.99543297 3.0590003
-2.3211615 -0.99705994 3.0640001
-2.3088372 -0.99803621 3.0670002
-2.3121929 -1.005846 3.0910001
-2.3071442 -1.0100764 3.1040001
-2.293848 -1.0107273 3.1060002
-2.2753963 -1.0091002 3.1010001
-2.2854238 -1.0201641 3.1350002
-2.2734001 -1.0214658 3.1390002
-2.2563016 -1.0204896 3.1360002
-2.2835448 -1.0396888 3.1950002
-2.2690485 -1.0400143 3.1960001
-2.2637103 -1.04457 3.21
-2.2526352 -1.0465225 3.2160001
-2.2595911 -1.0569357 3.2480001
-2.2441325 -1.0569357 3.2480001
-2.2259293 -1.055634 3.2440002
-2.2016315 -1.0514036 3.2310002
-2.1882837 -1.0523798 3.2340002
-2.1722198 -1.0520544 3.233
-2.1548314 -1.0510783 3.2300003
-2.1368089 -1.0497766 3.2260001
-2.1385529 -1.0582372 3.2520001
-2.1185055 -1.0559593 3.2450001
-2.1114862 -1.0601897 3.2580001
-2.0850434 -1.0546578 3.2410002
-2.0708954 -1.0553086 3.2430003
-2.0738411 -1.0647454 3.2720001
-2.0582683 -1.0647454 3.2720001
-2.0639217 -1.0758095 3.3060002
-2.0494261 -1.0764602 3.3080001
-2.0539696 -1.0871989 3.3410001
-2.0380685 -1.0871989 3.3410001
-2.0439565 -1.0989137 3.3770001
-2.0308864 -1.1005408 3.3820002
-2.0177689 -1.1021677 3.3870001
-2.0046036 -1.1037948 3.3920002
-1.9908046 -1.1050965 3.3960001
-1.9763861 -1.1060728 3.3990002
-1.9613622 -1.1067235 3.4010003
-1.9474632 -1.1080252 3.4050002
-1.933526 -1.1093268 3.4090002
-1.9223632 -1.1122556 3.4180002
-1.9200369 -1.1203908 3.4430001
-1.9091792 -1.1236449 3.4530001
-1.8954859 -1.125272 3.4580002
-1.8822881 -1.1272244 3.4640002
-1.8684945 -1.1288515 3.4690001
-1.8546537 -1.1304786 3.4740002
-1.8391775 -1.1311294 3.4760001
-1.8231581 -1.1314548 3.4770002
-1.8029728 -1.129177 3.4700003
-1.7874871 -1.1298277 3.4720001
-1.7745328 -1.1321056 3.4790001
-1.772629 -1.1415426 3.5080001
-1.7574346 -1.1425188 3.5110002
-1.7585728 -1.1542336 3.5470002
-1.7426733 -1.1548845 3.5490003
-1.7262684 -1.1552098 3.5500002
-1.7122616 -1.1571623 3.5560002
-1.6967673 -1.1581385 3.5590003
-1.6812446 -1.1591148 3.5620003
-1.6745707 -1.1662738 3.5840001
-1.658438 -1.1669246 3.5860002
-1.6399975 -1.1659484 3.5830002
-1.6238506 -1.1665993 3.5850003
-1.609477 -1.1685517 3.5910001
-1.5937164 -1.1695279 3.5940001
-1.5862621 -1.176687 3.6160002
-1.5707877 -1.1779885 3.6200001
-1.5561336 -1.1799411 3.6260002
-1.5524569 -1.1903542 3.6580002
-1.5392432 -1.1936084 3.6680002
-1.5205411 -1.1926321 3.6650002
-1.516632 -1.2033707 3.6980002
-1.5107871 -1.2128077 3.7270002
-1.4926481 -1.2124822 3.7260001
-1.4757063 -1.213133 3.7280002
-1.4704779 -1.2235461 3.7600002
-1.4525826 -1.2235461 3.7600002
-1.4427 -1.2303798 3.7810001
-1.4329944 -1.2375388 3.8030002
-1.4148943 -1.2375388 3.8030002
-1.4045073 -1.2443725 3.8240001
-1.3942829 -1.2515315 3.8460002
-1.3759784 -1.2515315 3.8460002
-1.3654398 -1.2586906 3.8680003
-1.3550402 -1.266175 3.8910003
-1.3365213 -1.266175 3.8910003
-1.3254544 -1.273334 3.9130001
-1.3145123 -1.2808185 3.9360001
-1.303351 -1.288303 3.9590001
-1.2922955 -1.2961129 3.9830003
-1.2733387 -1.2961129 3.9830003
-1.2616254 -1.3035973 4.006
-1.2425592 -1.3035973 4.006
-1.230823 -1.3114072 4.0300002
-1.2116426 -1.3114072 4.0300002
-1.1998595 -1.3195425 4.0550003
-1.1805602 -1.3195425 4.0550003
-1.1681337 -1.3273523 4.079
-1.14872 -1.3273523 4.079
-1.136228 -1.3354876 4.1040001
-1.1166954 -1.3354876 4.1040001
-1.0971627 -1.3354876 4.1040001
-1.0841947 -1.3436229 4.1290002
-1.064543 -1.3436229 4.1290002
-1.051471 -1.3520836 4.1550002
-1.0316956 -1.3520836 4.1550002
-1.0119203 -1.3520836 4.1550002
-0.99214488 -1.3520836 4.1550002
-0.97236961 -1.3520836 4.1550002
-0.95832586 -1.3602189 4.1800003
-0.9384315 -1.3602189 4.1800003
-0.9185372 -1.3602189 4.1800003
-0.90444744 -1.369005 4.2070003
-0.88442457 -1.369005 4.2070003
-0.86440176 -1.369005 4.2070003
-0.84959733 -1.3774657 4.2330003
-0.83474135 -1.3862518 4.2600002
-0.8196283 -1.3950379 4.2870002
-0.80425835 -1.403824 4.3140001
-0.78881299 -1.4129354 4.342
-0.77327806 -1.4223725 4.3710003
-0.75247473 -1.4223725 4.3710003
-0.73167133 -1.4223725 4.3710003
-0.71086794 -1.4223725 4.3710003
-0.6854862 -1.4129354 4.342
-0.66053367 -1.403824 4.3140001
-0.64000154 -1.403824 4.3140001
-0.6194694 -1.403824 4.3140001
-0.59893733 -1.403824 4.3140001
-0.5784052 -1.403824 4.3140001
-0.55787313 -1.403824 4.3140001
-0.537341 -1.403824 4.3140001
-0.52016324 -1.4129354 4.342
-0.49949792 -1.4129354 4.342
-0 -0 0
-0 -0 0
-0 -0 0
-0 -0 0
-0 -0 0
-0 -0 0
-0 -0 0
-0 -0 0
-0 -0 0
-0.12969589 -0.62576574 1.9230001
-0.11997936 -0.62283707 1.914
-0.11081193 -0.62251168 1.9130001
-0.10149451 -0.62120998 1.909
-0.092360392 -0.6208846 1.9080001
-0.083235778 -0.62055916 1.9070001
-0.074159585 -0.62055916 1.9070001
-0.065083385 -0.62055916 1.9070001
-0.056095295 -0.62153542 1.9100001
-0.04710326 -0.62283707 1.914
-0.038073145 -0.62413871 1.9180001
-0.029035142 -0.62609118 1.9240001
-0.019960687 -0.62869447 1.932
-0.010787793 -0.62999612 1.9360001
-0.0015792608 -0.63227397 1.9430001
0.0076880087 -0.63390106 1.9480001
0.017055109 -0.63748056 1.9590001
0.026473055 -0.63975847 1.9660001
0.035830058 -0.63975847 1.9660001
0.045554809 -0.64496505 1.9820001
0.055182166 -0.6472429 1.9890001
0.064746149 -0.64821917 1.9920001
0.074338682 -0.64919537 1.9950001
0.083833709 -0.64919537 1.9950001
0.09323518 -0.64854455 1.9930001
0.10251451 -0.6472429 1.9890001
0.11175579 -0.64594126 1.9850001
0.12089793 -0.64431423 1.9800001
0.12986082 -0.64203632 1.973
0.13882767 -0.64008385 1.9670001
0.14796343 -0.63910764 1.9640001
0.15683033 -0.63715518 1.9580001
0.16572496 -0.63552809 1.9530001
0.17475125 -0.63455188 1.95
0.18356022 -0.6329248 1.9450001
0.19281729 -0.6329248 1.9450001
0.20165876 -0.63162315 1.9410001
0.21046215 -0.6303215 1.937
0.2175263 -0.62413871 1.9180001
0.22535494 -0.62055916 1.9070001
0.23209544 -0.61437637 1.8880001
0.24018736 -0.61209846 1.881
0.24821268 -0.6098206 1.8740001
0.25630853 -0.60786813 1.868
0.26434731 -0.60591567 1.8620001
0.27232897 -0.6039632 1.8560001
0.2799505 -0.6013599 1.848
0.28749591 -0.59875661 1.84
0.29464316 -0.5955025 1.83
0.30219251 -0.59322464 1.8230001
0.30950472 -0.59062135 1.8150001
0.31709138 -0.58866888 1.8090001
0.32462087 -0.58671641 1.8030001
0.33209324 -0.58476394 1.7970001
0.33969811 -0.58313692 1.7920001
0.34744969 -0.58183527 1.7880001
0.354765 -0.5798828 1.7820001
0.36059633 -0.57565242 1.7690001
0.36818135 -0.57435077 1.7650001
0.37508816 -0.57207292 1.7580001
0.3823646 -0.5704459 1.7530001
0.3891477 -0.56816798 1.7460001
0.39609179 -0.56621552 1.7400001
0.40228158 -0.56328678 1.7310001
0.40909716 -0.56133431 1.725
0.41585565 -0.5593819 1.7190001
0.42305037 -0.5580802 1.715
0.42869839 -0.55482614 1.705
0.43527606 -0.55287367 1.6990001
0.44153556 -0.55059576 1.692
0.44772848 -0.54831791 1.6850001
0.45358434 -0.54571462 1.677
0.45908877 -0.54278594 1.6680001
0.46534753 -0.54083341 1.6620001
0.47097963 -0.53823012 1.654
0.47798315 -0.53725392 1.651
0.4849582 -0.53627771 1.6480001
0.49220359 -0.53562683 1.646
0.50003755 -0.53562683 1.646
0.50818014 -0.53595227 1.6470001
0.51664549 -0.53660309 1.649
0.52544796 -0.5375793 1.6520001
0.53427905 -0.53855556 1.6550001
0.54510409 -0.54148424 1.664
0.55202675 -0.54050803 1.6610001
0.57240504 -0.55254823 1.6980001
0.5811702 -0.55319905 1.7
0.59654033 -0.56003273 1.7210001
0.60719097 -0.56231058 1.728
0.61683983 -0.56361222 1.7320001
0.63338387 -0.57109672 1.7550001
0.64429629 -0.57337457 1.7620001
0.66675836 -0.58574021 1.8000001
0.67982745 -0.58964509 1.812
0.69453055 -0.59485167 1.8280001
0.71130943 -0.60168535 1.8490001
0.71894121 -0.60070908 1.8460001
0.72930402 -0.60201079 1.8500001
0.74369454 -0.60656649 1.8640001
0.76185203 -0.61405098 1.8870001
0.77287561 -0.61567801 1.8920001
0.7955178 -0.62641656 1.9250001
0.81429404 -0.63390106 1.9480001
0.829907 -0.6387822 1.9630001
0.84266996 -0.6413855 1.9710001
0.85983211 -0.6472429 1.9890001
0.88328427 -0.65765607 2.0210001
0.89599574 -0.65993392 2.0280001
0.90207523 -0.65733063 2.02
0.92477781 -0.66676754 2.049
0.94958085 -0.67750615 2.082
0.96870697 -0.68401432 2.102
0.99593884 -0.69605464 2.1390002
1.0117636 -0.69995952 2.151
1.0300784 -0.70549154 2.1680002
1.0413564 -0.70614231 2.1700001
1.061862 -0.71297604 2.1910002
1.077184 -0.71623009 2.2010002
1.0980369 -0.72306371 2.2220001
1.1250768 -0.73380232 2.2550001
1.1378241 -0.73510391 2.2590001
1.1724725 -0.75039822 2.306
1.1967908 -0.75885892 2.332
1.23327 -0.77480406 2.381
1.2712612 -0.79140007 2.4320002
1.3049902 -0.80506736 2.4740002
1.3353934 -0.81645674 2.5090001
1.3478719 -0.81678218 2.5100002
1.3825718 -0.8304494 2.552
1.3919853 -0.82882237 2.5470002
1.4211972 -0.8389101 2.5780001
1.435135 -0.83988637 2.5810001
1.4496622 -0.84118795 2.585
1.4619653 -0.84118795 2.585
1.4731277 -0.84053719 2.5830002
1.4842712 -0.83988637 2.5810001
1.4936562 -0.83825934 2.5760002
1.5035778 -0.83695763 2.572
1.4957811 -0.82589364 2.5380001
1.5060781 -0.82491744 2.5350001
1.5139511 -0.82263952 2.5280001
1.5169283 -0.81775832 2.513
1.5270637 -0.81678218 2.5100002
1.5377834 -0.81613135 2.5080001
1.5484842 -0.81548047 2.506
1.5604113 -0.81548047 2.506
1.5786126 -0.81873459 2.516
1.5899552 -0.8184092 2.5150001
1.6000143 -0.81743294 2.5120001
1.609403 -0.81613135 2.5080001
1.6174608 -0.81417882 2.5020001
1.6241592 -0.81157559 2.4940002
1.6320932 -0.80962312 2.4880002
1.6399701 -0.80767065 2.4820001
1.6457934 -0.80474192 2.473
1.6542121 -0.80311489 2.4680002
1.6639333 -0.80213869 2.4650002
1.6817834 -0.80506736 2.4740002
1.6956117 -0.80604362 2.4770002
1.7115365 -0.80799603 2.483
1.7247424 -0.80864686 2.4850001
1.7379671 -0.80929774 2.4870002
1.7512109 -0.8099485 2.4890001
1.7637653 -0.81027389 2.49
1.7791818 -0.81190097 2.4950001
1.7903388 -0.81157559 2.4940002
1.8007635 -0.81092477 2.4920001
1.8104417 -0.8099485 2.4890001
1.8200915 -0.80897224 2.4860001
1.8076059 -0.79823369 2.4530001
1.8111227 -0.79465419 2.4420002
1.8264769 -0.79628122 2.447
1.8283581 -0.79205084 2.434
1.846746 -0.79497957 2.4430001
1.8553303 -0.79367799 2.4390001
